%X	Y	Z	R	G	B
-1.2445833683	3.27600026131	1.66810274124	0	0	0
-1.23525393009	3.27500009537	1.66759335995	0	0	0
-1.23004877567	3.28500008583	1.67268538475	0	0	0
-1.22441720963	3.29400014877	1.67726802826	0	0	0
-1.21578466892	3.29500007629	1.67777729034	0	0	0
-1.20275175571	3.28400015831	1.67217612267	0	0	0
-1.19632220268	3.29100012779	1.67574036121	0	0	0
-1.19165825844	3.30300021172	1.68185079098	0	0	0
-1.18406426907	3.30700016022	1.68388748169	0	0	0
-1.17822504044	3.31600022316	1.68847024441	0	0	0
-1.17586255074	3.33500027657	1.69814479351	0	0	0
-1.16080152988	3.3180000782	1.68948864937	0	0	0
-1.15173447132	3.3180000782	1.68948864937	0	0	0
-1.14438927174	3.32300019264	1.69203448296	0	0	0
-1.13770008087	3.33000016212	1.6955987215	0	0	0
-1.1302947998	3.33500027657	1.69814479351	0	0	0
-1.12017273903	3.33200025558	1.69661724567	0	0	0
-1.1127345562	3.33700013161	1.69916319847	0	0	0
-1.10096979141	3.3290002346	1.69508969784	0	0	0
-1.09548056126	3.34000015259	1.70069086552	0	0	0
-1.08440172672	3.33400011063	1.69763565063	0	0	0
-1.08238649368	3.35600018501	1.70883762836	0	0	0
-1.06873846054	3.34200024605	1.70170915127	0	0	0
-1.0567522049	3.33300018311	1.69712638855	0	0	0
-1.05141603947	3.34500026703	1.7032366991	0	0	0
-1.04507946968	3.35400009155	1.70781946182	0	0	0
-1.03714942932	3.35800027847	1.70985615253	0	0	0
-1.0310343504	3.36800026894	1.71494805813	0	0	0
-1.02152717113	3.367000103	1.71443891525	0	0	0
-1.0150321722	3.37600016594	1.71902155876	0	0	0
-1.00908374786	3.38700008392	1.72462260723	0	0	0
-0.999532878399	3.3860001564	1.72411346436	0	0	0
-0.991449832916	3.3900001049	1.72615015507	0	0	0
-0.982475697994	3.39100027084	1.72665929794	0	0	0
-0.975218057632	3.39800024033	1.7302236557	0	0	0
-0.965932369232	3.39800024033	1.7302236557	0	0	0
-0.957491219044	3.40100026131	1.73175120354	0	0	0
-0.951542913914	3.41300010681	1.73786151409	0	0	0
-0.946357250214	3.42800021172	1.74549937248	0	0	0
-0.935622870922	3.42300009727	1.74295341969	0	0	0
-0.924374699593	3.41600012779	1.73938906193	0	0	0
-0.91611123085	3.42000007629	1.74142575264	0	0	0
-0.908356189728	3.42600011826	1.74448096752	0	0	0
-0.901880383492	3.43700027466	1.75008201599	0	0	0
-0.894305825233	3.44400024414	1.75364649296	0	0	0
-0.886435985565	3.45000004768	1.75670146942	0	0	0
-0.876753985882	3.44900012016	1.75619232655	0	0	0
-0.866825997829	3.44700026512	1.75517404079	0	0	0
-0.855913877487	3.44100022316	1.75211882591	0	0	0
-0.849462747574	3.45300006866	1.75822901726	0	0	0
-0.84148645401	3.45900011063	1.76128411293	0	0	0
-0.83227455616	3.46000027657	1.76179349422	0	0	0
-0.823294997215	3.46200013161	1.76281177998	0	0	0
-0.814774692059	3.46600008011	1.76484847069	0	0	0
-0.805303156376	3.46600008011	1.76484847069	0	0	0
-0.79606127739	3.46700024605	1.76535773277	0	0	0
-0.788402020931	3.47500014305	1.76943123341	0	0	0
-0.781595647335	3.48700022697	1.77554154396	0	0	0
-0.772730946541	3.49000024796	1.7770690918	0	0	0
-0.764724612236	3.49700021744	1.78063333035	0	0	0
-0.755168378353	3.49700021744	1.78063333035	0	0	0
-0.746038496494	3.49900007248	1.78165185452	0	0	0
-0.736897826195	3.50100016594	1.78267014027	0	0	0
-0.72878485918	3.50800013542	1.78623437881	0	0	0
-0.720018625259	3.51200008392	1.78827130795	0	0	0
-0.710825920105	3.51400017738	1.7892895937	0	0	0
-0.70142275095	3.5150001049	1.78979885578	0	0	0
-0.692998230457	3.52100014687	1.79285383224	0	0	0
-0.686093568802	3.53500008583	1.79998266697	0	0	0
-0.67777299881	3.54200005531	1.80354690552	0	0	0
-0.667339265347	3.53800010681	1.80151021481	0	0	0
-0.656183898449	3.53000020981	1.79743659496	0	0	0
-0.645255386829	3.52300024033	1.79387223721	0	0	0
-0.636710584164	3.52900028229	1.79692745209	0	0	0
-0.628133058548	3.53500008583	1.79998266697	0	0	0
-0.61969769001	3.54200005531	1.80354690552	0	0	0
-0.610362887383	3.54400014877	1.80456531048	0	0	0
-0.599322259426	3.53600025177	1.80049169064	0	0	0
-0.588825643063	3.53100013733	1.79794585705	0	0	0
-0.579012453556	3.53000020981	1.79743659496	0	0	0
-0.570172488689	3.53500008583	1.79998266697	0	0	0
-0.55908536911	3.52600026131	1.79539990425	0	0	0
-0.547735750675	3.5150001049	1.78979885578	0	0	0
-0.536293148994	3.5030002594	1.78368854523	0	0	0
-0.526119053364	3.49900007248	1.78165185452	0	0	0
-0.529309809208	3.65300011635	1.86006677151	0	0	0
-0.545627713203	3.83800029755	1.95426678658	0	0	0
-0.533326983452	3.8250002861	1.94764733315	0	0	0
-0.52451479435	3.83700013161	1.9537576437	0	0	0
-0.516172945499	3.85300016403	1.96190464497	0	0	0
-0.513517856598	3.91300010681	1.99245584011	0	0	0
-0.5044952631	3.92600011826	1.99907529354	0	0	0
-0.31281760335	2.72400021553	1.38703048229	0	0	0
-0.305597960949	2.72600007057	1.38804876804	0	0	0
-0.300007939339	2.74300003052	1.39670503139	0	0	0
-0.251419335604	2.55400013924	1.30046832561	0	0	0
-0.2417601794	2.52600002289	1.28621101379	0	0	0
-0.234206557274	2.51900005341	1.28264665604	0	0	0
-0.227864339948	2.52500009537	1.28570187092	0	0	0
-0.220964282751	2.52500009537	1.28570187092	0	0	0
-0.21296210587	2.51200008392	1.27908241749	0	0	0
-0.188446521759	2.37600016594	1.20983278751	0	0	0
-0.18095806241	2.3630001545	1.20321333408	0	0	0
-0.172802224755	2.34000015259	1.19150185585	0	0	0
-0.165981009603	2.33400011063	1.18844676018	0	0	0
-0.160286724567	2.34400010109	1.19353866577	0	0	0
-0.153881266713	2.34400010109	1.19353866577	0	0	0
-0.142945855856	2.27200007439	1.15687704086	0	0	0
-0.133968710899	2.22600007057	1.13345432281	0	0	0
-0.127541020513	2.22000002861	1.13039922714	0	0	0
-0.121091395617	2.21300005913	1.12683486938	0	0	0
-0.115147903562	2.21500015259	1.12785327435	0	0	0
-0.108208417892	2.1970000267	1.11868786812	0	0	0
-0.100716032088	2.16500020027	1.10239386559	0	0	0
-0.0945808067918	2.16000008583	1.09984791279	0	0	0
-0.088760279119	2.16200017929	1.10086619854	0	0	0
-0.0830054730177	2.16600012779	1.10290300846	0	0	0
-0.076944090426	2.16200017929	1.10086619854	0	0	0
-0.0710688456893	2.16300010681	1.10137546062	0	0	0
-0.0651278942823	2.16200017929	1.10086619854	0	0	0
-0.0591376200318	2.15900015831	1.09933876991	0	0	0
-0.053188405931	2.15700006485	1.09832036495	0	0	0
-0.0473816804588	2.16100001335	1.10035705566	0	0	0
-0.0417066328228	2.17300009727	1.10646736622	0	0	0
-0.0361141450703	2.19400000572	1.11716032028	0	0	0
-0.0305853430182	2.22800016403	1.13447272778	0	0	0
-0.0137853277847	2.49300003052	1.26940774918	0	0	0
-0.00696151889861	2.48900008202	1.26737105846	0	0	0
-0.000160086594406	2.49300003052	1.26940774918	0	0	0
0.00664986483753	2.492000103	1.2688986063	0	0	0
0.0134219434112	2.48500013351	1.26533424854	0	0	0
0.0201069619507	2.47200012207	1.25871479511	0	0	0
0.0266883298755	2.45600008965	1.25056779385	0	0	0
0.0333998389542	2.45600008965	1.25056779385	0	0	0
0.0399316996336	2.44500017166	1.24496674538	0	0	0
0.0463653095067	2.43200016022	1.23834729195	0	0	0
0.0525534898043	2.41100001335	1.22765433788	0	0	0
0.0590684376657	2.40800023079	1.22612667084	0	0	0
0.0657033026218	2.41000008583	1.22714519501	0	0	0
0.0722591131926	2.40900015831	1.22663593292	0	0	0
0.0783839896321	2.39500021935	1.21950721741	0	0	0
0.0849288105965	2.39500021935	1.21950721741	0	0	0
0.0913972407579	2.39300012589	1.21848893166	0	0	0
0.0981412231922	2.39800000191	1.22103488445	0	0	0
0.10360275954	2.37300014496	1.20830512047	0	0	0
0.110922507942	2.39100003242	1.2174705267	0	0	0
0.118537120521	2.41300010681	1.22867262363	0	0	0
0.122486419976	2.36200022697	1.202704072	0	0	0
0.130524158478	2.39100003242	1.2174705267	0	0	0
0.136714115739	2.38500022888	1.21441543102	0	0	0
0.142270714045	2.36900019646	1.20626831055	0	0	0
0.11262986809	1.71900010109	0.875295639038	0	0	0
0.116713099182	1.71000003815	0.87071287632	0	0	0
0.12117305398	1.70700013638	0.869185328484	0	0	0
0.126132652164	1.71100008488	0.871222138405	0	0	0
0.130655393004	1.70900011063	0.870203793049	0	0	0
0.13287088275	1.67800009251	0.854418814182	0	0	0
0.133442431688	1.62900006771	0.829468607903	0	0	0
0.136454954743	1.61200010777	0.82081246376	0	0	0
0.140685304999	1.61000013351	0.819793999195	0	0	0
0.14481459558	1.60700011253	0.818266510963	0	0	0
0.147256240249	1.58600008488	0.8075735569	0	0	0
0.148340582848	1.55200004578	0.790261089802	0	0	0
0.151795223355	1.54400002956	0.786187589169	0	0	0
0.155812427402	1.54200005531	0.785169184208	0	0	0
0.160130023956	1.54300010204	0.785678386688	0	0	0
0.164559602737	1.54500007629	0.786696732044	0	0	0
0.169655576348	1.55300009251	0.790770232677	0	0	0
0.174795269966	1.56100010872	0.794843792915	0	0	0
0.180093407631	1.57000005245	0.799426496029	0	0	0
0.185910493135	1.5830000639	0.806045949459	0	0	0
0.192038968205	1.59800004959	0.813683748245	0	0	0
0.196897432208	1.6020001173	0.815720558167	0	0	0
0.20052139461	1.59600007534	0.812665402889	0	0	0
0.204497665167	1.59300005436	0.811137855053	0	0	0
0.208588644862	1.59100008011	0.810119450092	0	0	0
0.212802529335	1.59000003338	0.809610247612	0	0	0
0.217284098268	1.59100008011	0.810119450092	0	0	0
0.221910431981	1.59300005436	0.811137855053	0	0	0
0.226405650377	1.59400010109	0.811647057533	0	0	0
0.23076158762	1.59400010109	0.811647057533	0	0	0
0.234970003366	1.59300005436	0.811137855053	0	0	0
0.239473432302	1.59400010109	0.811647057533	0	0	0
0.243523418903	1.59200012684	0.810628592968	0	0	0
0.245382681489	1.57600009441	0.802481591702	0	0	0
0.240658760071	1.51900005341	0.773457825184	0	0	0
0.238846614957	1.48200011253	0.754617810249	0	0	0
0.240929722786	1.47000002861	0.748507618904	0	0	0
0.243780374527	1.46300005913	0.744943320751	0	0	0
0.24710085988	1.45900011063	0.74290651083	0	0	0
0.250915765762	1.4580000639	0.742397367954	0	0	0
0.255074888468	1.45900011063	0.74290651083	0	0	0
0.258884340525	1.4580000639	0.742397367954	0	0	0
0.262688308954	1.45700001717	0.741888165474	0	0	0
0.266486823559	1.45600008965	0.741378903389	0	0	0
0.269722610712	1.45200002193	0.739342212677	0	0	0
0.273124992847	1.44900012016	0.737814605236	0	0	0
0.277084678411	1.44900012016	0.737814605236	0	0	0
0.281432271004	1.45100009441	0.738833010197	0	0	0
0.285397440195	1.45100009441	0.738833010197	0	0	0
0.289561986923	1.45200002193	0.739342212677	0	0	0
0.293529868126	1.45200002193	0.739342212677	0	0	0
0.296473324299	1.4470000267	0.73679625988	0	0	0
0.299804657698	1.44400012493	0.735268712044	0	0	0
0.302698910236	1.43900001049	0.732722759247	0	0	0
0.306418180466	1.43800008297	0.732213556767	0	0	0
0.31099525094	1.44100010395	0.733741104603	0	0	0
0.31449598074	1.43900001049	0.732722759247	0	0	0
0.306036382914	1.38300001621	0.704208135605	0	0	0
0.295478641987	1.31900000572	0.671620070934	0	0	0
0.292507320642	1.29000008106	0.656853616238	0	0	0
0.29373767972	1.2800000906	0.651761710644	0	0	0
0.29584223032	1.27400004864	0.648706614971	0	0	0
0.298383891582	1.27000010014	0.646669864655	0	0	0
0.299952983856	1.26200008392	0.642596304417	0	0	0
0.303401648998	1.26200008392	0.642596304417	0	0	0
0.306607156992	1.26100003719	0.642087161541	0	0	0
0.310053110123	1.26100003719	0.642087161541	0	0	0
0.312504589558	1.25700008869	0.640050411224	0	0	0
0.316442281008	1.25900006294	0.64106875658	0	0	0
0.319628685713	1.25800001621	0.6405595541	0	0	0
0.322809606791	1.25700008869	0.640050411224	0	0	0
0.325206428766	1.25300002098	0.638013601303	0	0	0
0.328368216753	1.25200009346	0.637504458427	0	0	0
0.332054585218	1.25300002098	0.638013601303	0	0	0
0.334943175316	1.25100004673	0.636995196342	0	0	0
0.338632255793	1.25200009346	0.637504458427	0	0	0
0.340960770845	1.24800002575	0.635467708111	0	0	0
0.343543350697	1.24500000477	0.63394010067	0	0	0
0.345552206039	1.24000000954	0.631394147873	0	0	0
0.348659366369	1.23900008202	0.630885004997	0	0	0
0.35147690773	1.23700010777	0.629866600037	0	0	0
0.353996634483	1.23400008678	0.628338992596	0	0	0
0.356499999762	1.2310000658	0.626811504364	0	0	0
0.359279304743	1.22900009155	0.625793099403	0	0	0
0.362637788057	1.22900009155	0.625793099403	0	0	0
0.365698456764	1.22800004482	0.625283896923	0	0	0
0.368753701448	1.2270001173	0.624774694443	0	0	0
0.370590358973	1.22200000286	0.62222880125	0	0	0
0.371787756681	1.21500003338	0.618664443493	0	0	0
0.375416696072	1.21600008011	0.619173645973	0	0	0
0.378116726875	1.21400010586	0.618155241013	0	0	0
0.382062613964	1.21600008011	0.619173645973	0	0	0
0.383800953627	1.21100008488	0.616627693176	0	0	0
0.385831594467	1.20700001717	0.61459094286	0	0	0
0.388807564974	1.20600008965	0.614081740379	0	0	0
0.39210319519	1.20600008965	0.614081740379	0	0	0
0.395398825407	1.20600008965	0.614081740379	0	0	0
0.398033291101	1.20400011539	0.613063335419	0	0	0
0.401656806469	1.20500004292	0.613572597504	0	0	0
0.404277592897	1.20300006866	0.612554192543	0	0	0
0.40553227067	1.1970000267	0.609499037266	0	0	0
0.4070956707	1.19200003147	0.606953144073	0	0	0
0.409664541483	1.19000005722	0.605934739113	0	0	0
0.412222474813	1.18800008297	0.604916393757	0	0	0
0.415468931198	1.18800008297	0.604916393757	0	0	0
0.418715387583	1.18800008297	0.604916393757	0	0	0
0.421961814165	1.18800008297	0.604916393757	0	0	0
0.423776596785	1.18400001526	0.602879583836	0	0	0
0.424487560987	1.17700004578	0.599315285683	0	0	0
0.429157495499	1.18100011349	0.601352035999	0	0	0
0.43092033267	1.17700004578	0.599315285683	0	0	0
0.434874415398	1.17900002003	0.600333631039	0	0	0
0.436238348484	1.1740000248	0.597787678242	0	0	0
0.43907225132	1.17300009727	0.597278535366	0	0	0
0.44114652276	1.17000007629	0.595750927925	0	0	0
0.445483148098	1.17300009727	0.597278535366	0	0	0
0.449836134911	1.17599999905	0.598806083202	0	0	0
0.452279299498	1.1740000248	0.597787678242	0	0	0
0.455099523067	1.17300009727	0.597278535366	0	0	0
0.459477096796	1.17599999905	0.598806083202	0	0	0
0.464657992125	1.18100011349	0.601352035999	0	0	0
0.466696768999	1.17800009251	0.599824428558	0	0	0
0.466325700283	1.16900002956	0.595241725445	0	0	0
0.463093936443	1.15299999714	0.587094724178	0	0	0
0.460583508015	1.13900005817	0.579966068268	0	0	0
0.465731590986	1.14400005341	0.582512021065	0	0	0
0.472956180573	1.15400004387	0.587603926659	0	0	0
0.480648040771	1.16500008106	0.593204975128	0	0	0
0.484662264585	1.16700005531	0.594223380089	0	0	0
0.483252853155	1.15600001812	0.588622272015	0	0	0
0.459903270006	1.09300005436	0.556543409824	0	0	0
0.440867871046	1.04100000858	0.530065596104	0	0	0
0.437319099903	1.02600002289	0.522427737713	0	0	0
0.429827570915	1.00200009346	0.510207235813	0	0	0
0.424795091152	0.98400002718	0.501041829586	0	0	0
0.424877434969	0.978000044823	0.497986674309	0	0	0
0.424489885569	0.97100007534	0.494422376156	0	0	0
0.42318418622	0.962000072002	0.48983964324	0	0	0
0.424927800894	0.960000038147	0.488821297884	0	0	0
0.426215112209	0.957000017166	0.487293720245	0	0	0
0.430174559355	0.960000038147	0.488821297884	0	0	0
0.431445479393	0.957000017166	0.487293720245	0	0	0
0.434514224529	0.958000063896	0.487802892923	0	0	0
0.434394359589	0.952000021935	0.484747767448	0	0	0
0.435159772635	0.948000073433	0.482711017132	0	0	0
0.436365127563	0.945000052452	0.481183439493	0	0	0
0.438947528601	0.945000052452	0.481183439493	0	0	0
0.440595477819	0.943000018597	0.480165094137	0	0	0
0.444582253695	0.946000039577	0.481692671776	0	0	0
0.450476258993	0.953000068665	0.485256969929	0	0	0
0.460211902857	0.968000054359	0.492894798517	0	0	0
0.464291632175	0.97100007534	0.494422376156	0	0	0
0.471754014492	0.981000065804	0.499514251947	0	0	0
0.477336525917	0.987000048161	0.502569377422	0	0	0
0.480033695698	0.987000048161	0.502569377422	0	0	0
0.482730865479	0.987000048161	0.502569377422	0	0	0
0.483460754156	0.983000040054	0.500532627106	0	0	0
0.488125234842	0.987000048161	0.502569377422	0	0	0
0.488833248615	0.983000040054	0.500532627106	0	0	0
0.493519574404	0.987000048161	0.502569377422	0	0	0
0.49722224474	0.989000022411	0.503587782383	0	0	0
0.501946806908	0.993000030518	0.5056245327	0	0	0
0.507709741592	0.999000072479	0.508679628372	0	0	0
0.510950624943	1.0	0.509188830853	0	0	0
0.506491720676	0.986000061035	0.502060174942	0	0	0
0.514866769314	0.997000038624	0.507661283016	0	0	0
0.518110394478	0.998000025749	0.508170485497	0	0	0
0.517184495926	0.991000056267	0.504606127739	0	0	0
0.524089515209	0.999000072479	0.508679628372	0	0	0
0.524182736874	0.994000017643	0.50613373518	0	0	0
0.52954941988	0.999000072479	0.508679628372	0	0	0
0.529615342617	0.994000017643	0.50613373518	0	0	0
0.535009384155	0.999000072479	0.508679628372	0	0	0
0.53235656023	0.989000022411	0.503587782383	0	0	0
0.5328951478	0.98500007391	0.501551032066	0	0	0
0.528518199921	0.972000062466	0.494931578636	0	0	0
0.528442025185	0.967000067234	0.492385625839	0	0	0
0.528887689114	0.963000059128	0.490348875523	0	0	0
0.533727049828	0.967000067234	0.492385625839	0	0	0
0.537478923798	0.969000041485	0.493404000998	0	0	0
0.54068428278	0.97000002861	0.493913173676	0	0	0
0.542774915695	0.969000041485	0.493404000998	0	0	0
0.545985758305	0.97000002861	0.493913173676	0	0	0
0.548070847988	0.969000041485	0.493404000998	0	0	0
0.548445522785	0.965000033379	0.491367220879	0	0	0
0.551082551479	0.965000033379	0.491367220879	0	0	0
0.549703001976	0.958000063896	0.487802892923	0	0	0
0.550014734268	0.95400005579	0.485766172409	0	0	0
0.552621781826	0.95400005579	0.485766172409	0	0	0
0.554646790028	0.953000068665	0.485256969929	0	0	0
0.556666254997	0.952000021935	0.484747767448	0	0	0
0.559855282307	0.953000068665	0.485256969929	0	0	0
0.561869323254	0.952000021935	0.484747767448	0	0	0
0.566842615604	0.956000030041	0.486784547567	0	0	0
0.570050776005	0.957000017166	0.487293720245	0	0	0
0.572067499161	0.956000030041	0.486784547567	0	0	0
0.578887939453	0.963000059128	0.490348875523	0	0	0
0.583934962749	0.967000067234	0.492385625839	0	0	0
0.582937896252	0.961000025272	0.489330470562	0	0	0
0.584345340729	0.959000051022	0.488312125206	0	0	0
0.58574193716	0.957000017166	0.487293720245	0	0	0
0.586512684822	0.95400005579	0.485766172409	0	0	0
0.584179461002	0.946000039577	0.481692671776	0	0	0
0.575599968433	0.928000032902	0.472527235746	0	0	0
0.576889932156	0.926000058651	0.471508860588	0	0	0
0.574414610863	0.918000042439	0.467435359955	0	0	0
0.581950902939	0.926000058651	0.471508860588	0	0	0
0.579431831837	0.918000042439	0.467435359955	0	0	0
0.578770875931	0.913000047207	0.464889407158	0	0	0
0.577445924282	0.90700006485	0.461834251881	0	0	0
0.573530554771	0.897000014782	0.456742376089	0	0	0
0.577908158302	0.900000035763	0.458269953728	0	0	0
0.581657290459	0.902000069618	0.459288328886	0	0	0
0.582827031612	0.900000035763	0.458269953728	0	0	0
0.586587071419	0.902000069618	0.459288328886	0	0	0
0.58186841011	0.891000032425	0.453687280416	0	0	0
0.569220244884	0.868000030518	0.44197589159	0	0	0
0.57356774807	0.871000051498	0.443503469229	0	0	0
0.57131922245	0.864000022411	0.439939141273	0	0	0
0.578328132629	0.871000051498	0.443503469229	0	0	0
0.580041646957	0.870000064373	0.442994296551	0	0	0
0.582419097424	0.870000064373	0.442994296551	0	0	0
0.590846121311	0.879000067711	0.447576999664	0	0	0
0.564226925373	0.836000025272	0.425681889057	0	0	0
0.570577323437	0.842000067234	0.428737014532	0	0	0
0.589207351208	0.866000056267	0.440957546234	0	0	0
0.575179219246	0.842000067234	0.428737014532	0	0	0
0.604228019714	0.881000041962	0.44859534502	0	0	0
0.588043987751	0.854000031948	0.434847265482	0	0	0
-2.16060781479	3.17500019073	1.60799837112	0	0	0
-2.14325523376	3.17500019073	1.60799837112	0	0	0
-2.18903589249	3.25600004196	1.64902126789	0	0	0
-2.11318063736	3.15600013733	1.59837567806	0	0	0
-2.10809779167	3.24100017548	1.6414244175	0	0	0
-2.0895254612	3.22600007057	1.63382744789	0	0	0
-2.09038448334	3.24100017548	1.6414244175	0	0	0
-2.07189416885	3.22600007057	1.63382744789	0	0	0
-2.04546976089	3.24000024796	1.64091801643	0	0	0
-2.02776193619	3.24000024796	1.64091801643	0	0	0
-2.02638530731	3.25200009346	1.64699530602	0	0	0
-2.0230820179	3.2610001564	1.65155351162	0	0	0
-2.00181770325	3.24100017548	1.6414244175	0	0	0
-2.01448321342	3.27600026131	1.65915036201	0	0	0
-1.94627261162	3.23700022697	1.63939857483	0	0	0
-1.96436047554	3.28200006485	1.66218912601	0	0	0
-1.94943380356	3.27200007439	1.65712463856	0	0	0
-1.91439783573	3.22800016403	1.63484048843	0	0	0
-1.94630932808	3.29700016975	1.6697858572	0	0	0
-1.89675557613	3.22800016403	1.63484048843	0	0	0
-1.92828989029	3.29700016975	1.6697858572	0	0	0
-1.91695153713	3.29300022125	1.66776013374	0	0	0
-1.89578545094	3.27200007439	1.65712463856	0	0	0
-1.9335539341	3.35300016403	1.69814753532	0	0	0
-1.89913809299	3.30900025368	1.6758633852	0	0	0
-1.87924289703	3.29000020027	1.66624069214	0	0	0
-1.86911535263	3.28800010681	1.66522777081	0	0	0
-1.89690291882	3.35300016403	1.69814753532	0	0	0
-1.85902702808	3.30200004578	1.67231822014	0	0	0
-1.87857747078	3.35300016403	1.69814753532	0	0	0
-1.84990084171	3.3180000782	1.68042159081	0	0	0
-1.80588126183	3.25500011444	1.64851474762	0	0	0
-1.80968391895	3.27800011635	1.66016316414	0	0	0
-1.8067688942	3.28900027275	1.66573429108	0	0	0
-1.80543351173	3.30300021172	1.6728246212	0	0	0
-1.78933703899	3.29000020027	1.66624069214	0	0	0
-1.77601730824	3.28200006485	1.66218912601	0	0	0
-1.76543343067	3.27900004387	1.66066980362	0	0	0
-1.74147391319	3.25100016594	1.64648890495	0	0	0
-1.75870418549	3.30000019073	1.67130529881	0	0	0
-1.723706007	3.25100016594	1.64648890495	0	0	0
-1.74066829681	3.30000019073	1.67130529881	0	0	0
-1.75106596947	3.33700013161	1.69004428387	0	0	0
-1.74612295628	3.34500026703	1.69409584999	0	0	0
-1.74009776115	3.35100007057	1.69713461399	0	0	0
-1.74953591824	3.38700008392	1.71536695957	0	0	0
-1.71561729908	3.33900022507	1.69105708599	0	0	0
-1.69882678986	3.32400012016	1.6834603548	0	0	0
-1.69635176659	3.33700013161	1.69004428387	0	0	0
-1.68874955177	3.34000015259	1.69156360626	0	0	0
-1.67459356785	3.33000016212	1.68649888039	0	0	0
-1.69950377941	3.39800024033	1.72093784809	0	0	0
-1.66733682156	3.35200023651	1.69764101505	0	0	0
-1.68093240261	3.39800024033	1.72093784809	0	0	0
-1.64803302288	3.35000014305	1.69662809372	0	0	0
-1.63398635387	3.34000015259	1.69156360626	0	0	0
-1.6341022253	3.35900020599	1.70118618011	0	0	0
-1.61669945717	3.34200024605	1.69257640839	0	0	0
-1.61045277119	3.34800004959	1.69561517239	0	0	0
-1.60895633698	3.36400008202	1.70371842384	0	0	0
-1.58264350891	3.32800006866	1.68548607826	0	0	0
-1.55794608593	3.29500007629	1.66877305508	0	0	0
-1.55364274979	3.30500006676	1.67383766174	0	0	0
-1.55676221848	3.33100008965	1.68700551987	0	0	0
-1.54719507694	3.33000016212	1.68649888039	0	0	0
-1.54132854939	3.33700013161	1.69004428387	0	0	0
-1.52118968964	3.31300020218	1.67788922787	0	0	0
-1.53313171864	3.35900020599	1.70118618011	0	0	0
-1.51623988152	3.34200024605	1.69257640839	0	0	0
-1.50755810738	3.34300017357	1.69308280945	0	0	0
-1.50380134583	3.35500025749	1.69916033745	0	0	0
-1.48928725719	3.34300017357	1.69308280945	0	0	0
-1.48546493053	3.35500025749	1.69916033745	0	0	0
-1.46793615818	3.33600020409	1.68953764439	0	0	0
-1.44745016098	3.3100001812	1.67636978626	0	0	0
-1.43449389935	3.30100011826	1.67181169987	0	0	0
-1.43540549278	3.32400012016	1.6834603548	0	0	0
-1.42491304874	3.34200024605	1.69257640839	0	0	0
-1.40518951416	3.31700015068	1.67991495132	0	0	0
-1.38686537743	3.29500007629	1.66877305508	0	0	0
-1.36071622372	3.25400018692	1.64800834656	0	0	0
-1.35805559158	3.26900005341	1.65560519695	0	0	0
-1.34953510761	3.27000021935	1.65611159801	0	0	0
-1.33895921707	3.26600027084	1.65408587456	0	0	0
-1.31578099728	3.23100018501	1.63635981083	0	0	0
-1.32070469856	3.2650001049	1.65357923508	0	0	0
-1.31821084023	3.28100013733	1.66168260574	0	0	0
-1.30086505413	3.26000022888	1.65104711056	0	0	0
-1.29195642471	3.26000022888	1.65104711056	0	0	0
-1.28777062893	3.27200007439	1.65712463856	0	0	0
-1.27335762978	3.25800013542	1.65003407001	0	0	0
-1.25979709625	3.2460000515	1.64395654202	0	0	0
-1.25285375118	3.25100016594	1.64648890495	0	0	0
-1.24817872047	3.26200008392	1.65205991268	0	0	0
-1.2442035675	3.27500009537	1.65864384174	0	0	0
-1.23412227631	3.27200007439	1.65712463856	0	0	0
-1.22742760181	3.27800011635	1.66016316414	0	0	0
-1.22218692303	3.28800010681	1.66522777081	0	0	0
-1.21393978596	3.29000020027	1.66624069214	0	0	0
-1.20165300369	3.28100013733	1.66168260574	0	0	0
-1.19377756119	3.28400015831	1.66320192814	0	0	0
-1.18588578701	3.28700017929	1.66472136974	0	0	0
-1.18263208866	3.30300021172	1.6728246212	0	0	0
-1.17715907097	3.31300020218	1.67788922787	0	0	0
-1.16845834255	3.3140001297	1.67839562893	0	0	0
-1.15660333633	3.3060002327	1.67434406281	0	0	0
-1.14999878407	3.31300020218	1.67788922787	0	0	0
-1.1440448761	3.32200026512	1.68244731426	0	0	0
-1.13633346558	3.32600021362	1.68447315693	0	0	0
-1.12622773647	3.32300019264	1.68295371532	0	0	0
-1.12286221981	3.34000015259	1.69156360626	0	0	0
-1.1127345562	3.33700013161	1.69004428387	0	0	0
-1.10493838787	3.34100008011	1.69207000732	0	0	0
-1.08924865723	3.32100009918	1.6819409132	0	0	0
-1.09058153629	3.35300016403	1.69814753532	0	0	0
-1.07496833801	3.33300018311	1.68801832199	0	0	0
-1.06458115578	3.3290002346	1.68599247932	0	0	0
-1.05706930161	3.33400011063	1.68852484226	0	0	0
-1.05047309399	3.34200024605	1.69257640839	0	0	0
-1.04445636272	3.35200023651	1.69764101505	0	0	0
-1.03714942932	3.35800027847	1.70067977905	0	0	0
-1.02705466747	3.35500025749	1.69916033745	0	0	0
-1.01970672607	3.36100006104	1.70219910145	0	0	0
-1.01533269882	3.37700009346	1.71030235291	0	0	0
-1.00670027733	3.37900018692	1.71131539345	0	0	0
-0.999828100204	3.38700008392	1.71536695957	0	0	0
-0.989695072174	3.38400006294	1.71384751797	0	0	0
-0.981316804886	3.38700008392	1.71536695957	0	0	0
-0.973209142685	3.39100027084	1.71739268303	0	0	0
-0.964795291424	3.39400005341	1.71891212463	0	0	0
-0.953549802303	3.38700008392	1.71536695957	0	0	0
-0.945409357548	3.39100027084	1.71739268303	0	0	0
-0.940559864044	3.40700006485	1.7254960537	0	0	0
-0.934256196022	3.41800022125	1.73106718063	0	0	0
-0.924645185471	3.41700005531	1.73056054115	0	0	0
-0.915843367577	3.41900014877	1.7315735817	0	0	0
-0.908886492252	3.42800021172	1.73613166809	0	0	0
-0.899781167507	3.42900013924	1.73663806915	0	0	0
-0.891449391842	3.43300008774	1.73866391182	0	0	0
-0.882068037987	3.43300008774	1.73866391182	0	0	0
-0.874466180801	3.44000005722	1.74220907688	0	0	0
-0.866322994232	3.44500017166	1.74474143982	0	0	0
-0.856908857822	3.44500017166	1.74474143982	0	0	0
-0.84921681881	3.45200014114	1.74828660488	0	0	0
-0.840513348579	3.45500016212	1.74980592728	0	0	0
-0.831312417984	3.45600008965	1.75031232834	0	0	0
-0.821630358696	3.45500016212	1.74980592728	0	0	0
-0.814304590225	3.46400022507	1.75436413288	0	0	0
-0.805535554886	3.46700024605	1.75588345528	0	0	0
-0.796750068665	3.47000026703	1.75740289688	0	0	0
-0.786813914776	3.46800017357	1.75638985634	0	0	0
-0.779578328133	3.47800016403	1.76145446301	0	0	0
-0.772066712379	3.48700022697	1.7660125494	0	0	0
-0.764505922794	3.4960000515	1.770570755	0	0	0
-0.755168378353	3.49700021744	1.77107715607	0	0	0
-0.74561214447	3.49700021744	1.77107715607	0	0	0
-0.736897826195	3.50100016594	1.77310287952	0	0	0
-0.729615867138	3.51200008392	1.77867400646	0	0	0
-0.72104370594	3.51700019836	1.78120625019	0	0	0
-0.712444186211	3.52200007439	1.78373861313	0	0	0
-0.702819645405	3.52200007439	1.78373861313	0	0	0
-0.693982362747	3.52600026131	1.78576433659	0	0	0
-0.683570504189	3.52200007439	1.78373861313	0	0	0
-0.675668120384	3.53100013733	1.78829669952	0	0	0
-0.666207551956	3.53200006485	1.78880310059	0	0	0
-0.655997991562	3.52900028229	1.78728377819	0	0	0
-0.646537482738	3.53000020981	1.78779017925	0	0	0
-0.637251913548	3.53200006485	1.78880310059	0	0	0
-0.628843784332	3.53900027275	1.79234826565	0	0	0
-0.61969769001	3.54200005531	1.79386770725	0	0	0
-0.611051797867	3.54800009727	1.79690647125	0	0	0
-0.600339233875	3.54200005531	1.79386770725	0	0	0
-0.589325904846	3.53400015831	1.78981590271	0	0	0
-0.579668581486	3.53400015831	1.78981590271	0	0	0
-0.571140229702	3.54100012779	1.79336130619	0	0	0
-0.559561014175	3.52900028229	1.78728377819	0	0	0
-0.547579944134	3.51400017738	1.77968680859	0	0	0
-0.537671029568	3.51200008392	1.77867400646	0	0	0
-0.532207787037	3.67300009727	1.86021339893	0	0	0
-0.527932286263	3.86200022697	1.95593369007	0	0	0
-0.525148630142	3.92000007629	1.98530817032	0	0	0
-0.513517856598	3.91300010681	1.98176276684	0	0	0
-0.333119004965	2.76900005341	1.40237700939	0	0	0
-0.324141323566	2.7570002079	1.3962996006	0	0	0
-0.304813206196	2.71900010109	1.37705421448	0	0	0
-0.297711133957	2.72200012207	1.37857365608	0	0	0
-0.250828683376	2.54800009727	1.29045021534	0	0	0
-0.241664469242	2.52500009537	1.27880179882	0	0	0
-0.233648702502	2.51300001144	1.27272427082	0	0	0
-0.227683857083	2.52300000191	1.27778887749	0	0	0
-0.220439210534	2.51900005341	1.27576303482	0	0	0
-0.213640317321	2.52000021935	1.27626955509	0	0	0
-0.200600519776	2.44500017166	1.23828530312	0	0	0
-0.189160332084	2.38500022888	1.20789790154	0	0	0
-0.179426476359	2.34300017357	1.18662667274	0	0	0
-0.172211438417	2.33200001717	1.18105566502	0	0	0
-0.165625438094	2.32899999619	1.17953634262	0	0	0
-0.159466132522	2.33200001717	1.18105566502	0	0	0
-0.153224766254	2.33400011063	1.18206870556	0	0	0
-0.142379596829	2.26300001144	1.14611029625	0	0	0
-0.134389996529	2.23300004005	1.13091659546	0	0	0
-0.127598464489	2.22100019455	1.12483906746	0	0	0
-0.121310271323	2.21700000763	1.12281322479	0	0	0
-0.115303859115	2.21800017357	1.12331974506	0	0	0
-0.10801140219	2.1930000782	1.11065840721	0	0	0
-0.100390397012	2.15799999237	1.09293234348	0	0	0
-0.0942742973566	2.15300011635	1.09040009975	0	0	0
-0.0885550007224	2.15700006485	1.09242582321	0	0	0
-0.0829671546817	2.16500020027	1.09647750854	0	0	0
-0.0769796818495	2.16300010681	1.09546458721	0	0	0
-0.071003139019	2.16100001335	1.09445178509	0	0	0
-0.0650375187397	2.15900015831	1.09343886375	0	0	0
-0.0590554475784	2.15600013733	1.09191942215	0	0	0
-0.0531637482345	2.15600013733	1.09191942215	0	0	0
-0.0473816804588	2.16100001335	1.09445178509	0	0	0
-0.0416874401271	2.17200016975	1.10002279282	0	0	0
-0.0359989218414	2.18700003624	1.10761964321	0	0	0
-0.0304343402386	2.21700000763	1.12281322479	0	0	0
-0.0138516817242	2.50500011444	1.26867258549	0	0	0
-0.00698109762743	2.4960000515	1.2641146183	0	0	0
-0.000160150812007	2.49400019646	1.26310157776	0	0	0
0.00664986483753	2.492000103	1.26208865643	0	0	0
0.0134489508346	2.49000000954	1.2610758543	0	0	0
0.0201801676303	2.48100018501	1.2565176487	0	0	0
0.0267969965935	2.46600008011	1.2489207983	0	0	0
0.0333862416446	2.45500016212	1.24334979057	0	0	0
0.039899032563	2.4430000782	1.23727238178	0	0	0
0.0463653095067	2.43200016022	1.23170137405	0	0	0
0.0526842698455	2.41700005531	1.22410452366	0	0	0
0.059313736856	2.41800022125	1.22461104393	0	0	0
0.0659486651421	2.41900014877	1.22511744499	0	0	0
0.0723191052675	2.41100001335	1.22106575966	0	0	0
0.0783839896321	2.39500021935	1.21296238899	0	0	0
0.0847160443664	2.38900017738	1.2099237442	0	0	0
0.0913972407579	2.39300012589	1.21194958687	0	0	0
0.0973636209965	2.37900018692	1.20485913754	0	0	0
0.10438862443	2.39100003242	1.21093666553	0	0	0
0.10883487761	2.34600019455	1.18814611435	0	0	0
0.116916023195	2.38000011444	1.20536565781	0	0	0
0.124301418662	2.39700007439	1.21397542953	0	0	0
0.136083558202	2.37400007248	1.20232689381	0	0	0
0.109376482666	1.742000103	0.882246613503	0	0	0
0.113022990525	1.72500002384	0.873636782169	0	0	0
0.116713099182	1.71000003815	0.866039991379	0	0	0
0.12117305398	1.70700013638	0.864520609379	0	0	0
0.126058936119	1.71000003815	0.866039991379	0	0	0
0.130808293819	1.71100008488	0.866546452045	0	0	0
0.133187621832	1.68200004101	0.851859211922	0	0	0
0.133442431688	1.62900006771	0.825017035007	0	0	0
0.136370301247	1.61100006104	0.815900862217	0	0	0
0.140685304999	1.61000013351	0.815394341946	0	0	0
0.144364029169	1.6020001173	0.811342775822	0	0	0
0.146327763796	1.57600009441	0.798174858093	0	0	0
0.147958263755	1.54800009727	0.783994078636	0	0	0
0.151500284672	1.54100012779	0.780448913574	0	0	0
0.155610337853	1.54000008106	0.779942452908	0	0	0
0.159818693995	1.54000008106	0.779942452908	0	0	0
0.164027050138	1.54000008106	0.779942452908	0	0	0
0.169000118971	1.54700005054	0.783487677574	0	0	0
0.17412340641	1.55500006676	0.787539243698	0	0	0
0.179634571075	1.56600010395	0.793110311031	0	0	0
0.185323283076	1.57800006866	0.799187839031	0	0	0
0.19191879034	1.59700012207	0.808810412884	0	0	0
0.196897432208	1.6020001173	0.811342775822	0	0	0
0.201023966074	1.60000002384	0.810329794884	0	0	0
0.204240918159	1.59100008011	0.805771768093	0	0	0
0.208457544446	1.59000003338	0.805265247822	0	0	0
0.212133347988	1.58500003815	0.802733004093	0	0	0
0.217147529125	1.59000003338	0.805265247822	0	0	0
0.221492514014	1.59000003338	0.805265247822	0	0	0
0.22626362741	1.59300005436	0.806784629822	0	0	0
0.230037733912	1.58900010586	0.804758787155	0	0	0
0.234084993601	1.58700013161	0.803745865822	0	0	0
0.238421782851	1.58700013161	0.803745865822	0	0	0
0.242911547422	1.58800005913	0.804252386093	0	0	0
0.244604170322	1.57100009918	0.79564255476	0	0	0
0.241292491555	1.52300012112	0.771332740784	0	0	0
0.23836311698	1.47900009155	0.749048650265	0	0	0
0.240765824914	1.46900010109	0.743984043598	0	0	0
0.243613749743	1.4620000124	0.740438878536	0	0	0
0.247270226479	1.46000003815	0.739426016808	0	0	0
0.250399500132	1.45500004292	0.736893713474	0	0	0
0.254200726748	1.45400011539	0.736387252808	0	0	0
0.257996529341	1.45300006866	0.735880732536	0	0	0
0.262147426605	1.45400011539	0.736387252808	0	0	0
0.265571683645	1.45100009441	0.734867870808	0	0	0
0.269165307283	1.44900012016	0.733854949474	0	0	0
0.272748023272	1.4470000267	0.732842087746	0	0	0
0.277084678411	1.44900012016	0.733854949474	0	0	0
0.28123831749	1.45000004768	0.734361469746	0	0	0
0.285790801048	1.45300006866	0.735880732536	0	0	0
0.289761424065	1.45300006866	0.735880732536	0	0	0
0.29312556982	1.45000004768	0.734361469746	0	0	0
0.296063542366	1.44500005245	0.731829166412	0	0	0
0.29918178916	1.44100010395	0.729803323746	0	0	0
0.302909255028	1.44000005722	0.729296803474	0	0	0
0.306205093861	1.43700003624	0.727777540684	0	0	0
0.31099525094	1.44100010395	0.729803323746	0	0	0
0.31427744031	1.43800008297	0.728283941746	0	0	0
0.307364106178	1.38900005817	0.703467607498	0	0	0
0.296150684357	1.3220000267	0.669535040855	0	0	0
0.290693312883	1.28200006485	0.649276793003	0	0	0
0.291442841291	1.27000010014	0.643199324608	0	0	0
0.293752282858	1.2650001049	0.640667021275	0	0	0
0.296974211931	1.26400005817	0.640160560608	0	0	0
0.299715310335	1.26100003719	0.638641178608	0	0	0
0.303161233664	1.26100003719	0.638641178608	0	0	0
0.306364029646	1.26000010967	0.638134777546	0	0	0
0.309561342001	1.25900006294	0.637628257275	0	0	0
0.312255978584	1.25600004196	0.636108934879	0	0	0
0.315688252449	1.25600004196	0.636108934879	0	0	0
0.318866431713	1.25500011444	0.635602474213	0	0	0
0.32178235054	1.25300002098	0.634589552879	0	0	0
0.324427813292	1.25	0.633070170879	0	0	0
0.328105956316	1.25100004673	0.633576631546	0	0	0
0.331524550915	1.25100004673	0.633576631546	0	0	0
0.334675431252	1.25	0.633070170879	0	0	0
0.338091313839	1.25	0.633070170879	0	0	0
0.340960770845	1.24800002575	0.632057309151	0	0	0
0.343543350697	1.24500000477	0.630537927151	0	0	0
0.345273554325	1.23900008202	0.627499163151	0	0	0
0.348096549511	1.23700010777	0.626486241817	0	0	0
0.351192772388	1.23600006104	0.625979781151	0	0	0
0.353422909975	1.23200011253	0.623953998089	0	0	0
0.355920791626	1.22900009155	0.622434616089	0	0	0
0.35869461298	1.2270001173	0.621421694756	0	0	0
0.362342685461	1.22800004482	0.621928155422	0	0	0
0.365698456764	1.22800004482	0.621928155422	0	0	0
0.368453145027	1.22600007057	0.620915234089	0	0	0
0.370590358973	1.22200000286	0.618889451027	0	0	0
0.371481746435	1.21400010586	0.614837765694	0	0	0
0.374799221754	1.21400010586	0.614837765694	0	0	0
0.377805292606	1.21300005913	0.614331305027	0	0	0
0.382376849651	1.21700000763	0.616357088089	0	0	0
0.384434819221	1.21300005913	0.614331305027	0	0	0
0.386790573597	1.21000003815	0.612811923027	0	0	0
0.389129966497	1.20700001717	0.611292541027	0	0	0
0.392428338528	1.20700001717	0.611292541027	0	0	0
0.395070999861	1.20500004292	0.610279679298	0	0	0
0.397702723742	1.20300006866	0.609266757965	0	0	0
0.40032351017	1.20100009441	0.608253836632	0	0	0
0.403269380331	1.20000004768	0.607747375965	0	0	0
0.404854685068	1.19500005245	0.605215072632	0	0	0
0.4070956707	1.19200003147	0.603695750237	0	0	0
0.408976048231	1.18800008297	0.60166990757	0	0	0
0.412569493055	1.18900001049	0.602176368237	0	0	0
0.415818661451	1.18900001049	0.602176368237	0	0	0
0.419772773981	1.19100010395	0.603189229965	0	0	0
0.421961814165	1.18800008297	0.60166990757	0	0	0
0.424492448568	1.18600010872	0.600656986237	0	0	0
0.426651477814	1.18300008774	0.599137604237	0	0	0
0.426613777876	1.1740000248	0.594579517841	0	0	0
0.430188119411	1.17500007153	0.595085978508	0	0	0
0.433030158281	1.1740000248	0.594579517841	0	0	0
0.436609953642	1.17500007153	0.595085978508	0	0	0
0.439446538687	1.1740000248	0.594579517841	0	0	0
0.44114652276	1.17000007629	0.592553675175	0	0	0
0.443964034319	1.16900002956	0.592047214508	0	0	0
0.445628494024	1.16500008106	0.590021371841	0	0	0
0.451894074678	1.17300009727	0.594073057175	0	0	0
0.4554874897	1.1740000248	0.594579517841	0	0	0
0.459086418152	1.17500007153	0.595085978508	0	0	0
0.462297320366	1.17500007153	0.595085978508	0	0	0
0.465904414654	1.17599999905	0.595592439175	0	0	0
0.466325700283	1.16900002956	0.592047214508	0	0	0
0.464298844337	1.15600001812	0.585463285446	0	0	0
0.458965986967	1.13500010967	0.574827730656	0	0	0
0.460439175367	1.13100004196	0.572801887989	0	0	0
0.472546368837	1.15299999714	0.583943903446	0	0	0
0.478585153818	1.16000008583	0.587489128113	0	0	0
0.483831644058	1.16500008106	0.590021371841	0	0	0
0.483670920134	1.15700006485	0.585969746113	0	0	0
0.455695539713	1.0830000639	0.548492014408	0	0	0
0.437056362629	1.03200006485	0.522662758827	0	0	0
0.432204246521	1.01400005817	0.513546526432	0	0	0
0.428969621658	1.0	0.506456136703	0	0	0
0.430407226086	0.997000038624	0.504936814308	0	0	0
0.424443036318	0.977000057697	0.49480766058	0	0	0
0.424927026033	0.972000062466	0.492275387049	0	0	0
0.423624128103	0.963000059128	0.487717270851	0	0	0
0.425813049078	0.962000072002	0.487210780382	0	0	0
0.427105844021	0.959000051022	0.485691457987	0	0	0
0.428830295801	0.957000017166	0.484678506851	0	0	0
0.432347148657	0.959000051022	0.485691457987	0	0	0
0.434060692787	0.957000017166	0.484678506851	0	0	0
0.433481782675	0.950000047684	0.481133341789	0	0	0
0.433782726526	0.945000052452	0.478601038456	0	0	0
0.434518069029	0.941000044346	0.476575225592	0	0	0
0.438018530607	0.943000018597	0.477588146925	0	0	0
0.440595477819	0.943000018597	0.477588146925	0	0	0
0.445052236319	0.947000026703	0.479613959789	0	0	0
0.450003564358	0.952000021935	0.48214623332	0	0	0
0.456408500671	0.960000038147	0.486197888851	0	0	0
0.461900830269	0.966000020504	0.489236623049	0	0	0
0.469830453396	0.977000057697	0.49480766058	0	0	0
0.476852893829	0.986000061035	0.499365746975	0	0	0
0.479547321796	0.986000061035	0.499365746975	0	0	0
0.480285406113	0.982000052929	0.497339934111	0	0	0
0.481985270977	0.980000019073	0.49632704258	0	0	0
0.487136125565	0.98500007391	0.498859316111	0	0	0
0.491816967726	0.989000022411	0.500885128975	0	0	0
0.496019661427	0.992000043392	0.50240445137	0	0	0
0.49722224474	0.989000022411	0.500885128975	0	0	0
0.496891975403	0.983000040054	0.497846364975	0	0	0
0.500594675541	0.98500007391	0.498859316111	0	0	0
0.503286361694	0.98500007391	0.498859316111	0	0	0
0.505978107452	0.98500007391	0.498859316111	0	0	0
0.507120490074	0.982000052929	0.497339934111	0	0	0
0.514995515347	0.992000043392	0.50240445137	0	0	0
0.518228232861	0.993000030518	0.502910971642	0	0	0
0.521991074085	0.995000064373	0.50392383337	0	0	0
0.531038284302	1.00700008869	0.51000136137	0	0	0
0.52954941988	0.999000072479	0.505949676037	0	0	0
0.525885641575	0.987000048161	0.499872207642	0	0	0
0.535009384155	0.999000072479	0.505949676037	0	0	0
0.531280040741	0.987000048161	0.499872207642	0	0	0
0.537223279476	0.993000030518	0.502910971642	0	0	0
0.537761867046	0.989000022411	0.500885128975	0	0	0
0.534999728203	0.979000031948	0.495820552111	0	0	0
0.533281385899	0.97100007534	0.491768926382	0	0	0
0.532623171806	0.965000033379	0.488730162382	0	0	0
0.538588285446	0.97100007534	0.491768926382	0	0	0
0.541241705418	0.97100007534	0.491768926382	0	0	0
0.543335020542	0.97000002861	0.491262435913	0	0	0
0.543734252453	0.966000020504	0.489236623049	0	0	0
0.548636436462	0.97000002861	0.491262435913	0	0	0
0.549013853073	0.966000020504	0.489236623049	0	0	0
0.549940407276	0.963000059128	0.487717270851	0	0	0
0.549129188061	0.957000017166	0.484678506851	0	0	0
0.547708630562	0.950000047684	0.481133341789	0	0	0
0.549725413322	0.949000060558	0.480626881123	0	0	0
0.552318751812	0.949000060558	0.480626881123	0	0	0
0.556081593037	0.951000034809	0.481639802456	0	0	0
0.560442745686	0.95400005579	0.483159184456	0	0	0
0.561279177666	0.951000034809	0.481639802456	0	0	0
0.565656721592	0.95400005579	0.483159184456	0	0	0
0.566476762295	0.951000034809	0.481639802456	0	0	0
0.568477153778	0.950000047684	0.481133341789	0	0	0
0.579488992691	0.964000046253	0.488223731518	0	0	0
0.583331048489	0.966000020504	0.489236623049	0	0	0
0.581118106842	0.958000063896	0.485184967518	0	0	0
0.57947075367	0.951000034809	0.481639802456	0	0	0
0.582069516182	0.951000034809	0.481639802456	0	0	0
0.583438754082	0.949000060558	0.480626881123	0	0	0
0.583561956882	0.945000052452	0.478601038456	0	0	0
0.581182301044	0.93700003624	0.47454944253	0	0	0
0.578758895397	0.929000020027	0.470497786999	0	0	0
0.573788881302	0.917000055313	0.464420288801	0	0	0
0.576294779778	0.917000055313	0.464420288801	0	0	0
0.578800678253	0.917000055313	0.464420288801	0	0	0
0.581306576729	0.917000055313	0.464420288801	0	0	0
0.576809227467	0.90600001812	0.45884925127	0	0	0
0.576727509499	0.902000069618	0.456823438406	0	0	0
0.579192399979	0.902000069618	0.456823438406	0	0	0
0.584236681461	0.90600001812	0.45884925127	0	0	0
0.579589128494	0.895000040531	0.453278273344	0	0	0
0.589188337326	0.90600001812	0.45884925127	0	0	0
0.584480643272	0.895000040531	0.453278273344	0	0	0
0.582991719246	0.889000058174	0.450239509344	0	0	0
0.576201856136	0.875000059605	0.443149119616	0	0	0
0.570657968521	0.863000035286	0.43707165122	0	0	0
0.578328132629	0.871000051498	0.441123306751	0	0	0
0.575374603271	0.863000035286	0.43707165122	0	0	0
0.57438570261	0.858000040054	0.434539377689	0	0	0
0.584124326706	0.869000017643	0.44011041522	0	0	0
0.570301115513	0.84500002861	0.427955448627	0	0	0
0.562445580959	0.830000042915	0.420358598232	0	0	0
0.574919402599	0.84500002861	0.427955448627	0	0	0
0.575179219246	0.842000067234	0.426436066628	0	0	0
0.573365092278	0.836000025272	0.423397362232	0	0	0
0.577715337276	0.839000046253	0.424916684628	0	0	0
-7.33182287216	10.5620002747	5.32032680511	0	0	0
-2.1594543457	3.21200013161	1.61795973778	0	0	0
-2.10781002045	3.22700023651	1.62551558018	0	0	0
-2.09017300606	3.22700023651	1.62551558018	0	0	0
-2.05430817604	3.25400018692	1.63911604881	0	0	0
-2.03026533127	3.24400019646	1.63407886028	0	0	0
-2.03448605537	3.2650001049	1.6446570158	0	0	0
-2.02742481232	3.26800012589	1.64616811275	0	0	0
-1.94927883148	3.242000103	1.63307142258	0	0	0
-1.96914863586	3.29000020027	1.65725016594	0	0	0
-1.92619800568	3.23300004005	1.62853777409	0	0	0
-1.9292242527	3.2530002594	1.63861238956	0	0	0
-1.92918980122	3.26800012589	1.64616811275	0	0	0
-1.91144537926	3.2530002594	1.63861238956	0	0	0
-1.91132879257	3.26800012589	1.64616811275	0	0	0
-1.89890551567	3.26200008392	1.64314579964	0	0	0
-1.9218583107	3.31700015068	1.67085063457	0	0	0
-1.92375051975	3.33600020409	1.68042135239	0	0	0
-1.91233861446	3.33200025558	1.67840647697	0	0	0
-1.88609719276	3.30200004578	1.66329491138	0	0	0
-1.87252604961	3.29400014877	1.65926492214	0	0	0
-1.86522185802	3.29700016975	1.66077613831	0	0	0
-1.85452306271	3.29400014877	1.65926492214	0	0	0
-1.83431625366	3.27400016785	1.64919054508	0	0	0
-1.8114310503	3.24900007248	1.63659739494	0	0	0
-1.8086553812	3.26000022888	1.64213848114	0	0	0
-1.80802762508	3.27500009537	1.64969420433	0	0	0
-1.83093965054	3.33300018311	1.67891013622	0	0	0
-1.81417918205	3.31900024414	1.67185807228	0	0	0
-1.79695117474	3.30400013924	1.66430222988	0	0	0
-1.76898252964	3.26900005341	1.64667201042	0	0	0
-1.75735723972	3.26400017738	1.64415335655	0	0	0
-1.74468815327	3.2570002079	1.64062726498	0	0	0
-1.73951816559	3.26400017738	1.64415335655	0	0	0
-1.72688734531	3.2570002079	1.64062726498	0	0	0
-1.73170113564	3.28300023079	1.65372407436	0	0	0
-1.73269975185	3.30200004578	1.66329491138	0	0	0
-1.73255074024	3.31900024414	1.67185807228	0	0	0
-1.73438572884	3.34000015259	1.68243634701	0	0	0
-1.74023830891	3.36900019646	1.69704425335	0	0	0
-1.71664500237	3.34100008011	1.68294000626	0	0	0
-1.71109271049	3.34800004959	1.68646609783	0	0	0
-1.696860075	3.33800005913	1.6814289093	0	0	0
-1.69127774239	3.34500026703	1.68495488167	0	0	0
-1.68967998028	3.36000013351	1.69251084328	0	0	0
-1.68099832535	3.36100006104	1.69301450253	0	0	0
-1.66136801243	3.34000015259	1.68243634701	0	0	0
-1.65570342541	3.34700012207	1.68596243858	0	0	0
-1.64065372944	3.33500027657	1.67991769314	0	0	0
-1.63349699974	3.33900022507	1.68193256855	0	0	0
-1.63118338585	3.35300016403	1.6889847517	0	0	0
-1.62540686131	3.36000013351	1.69251084328	0	0	0
-1.61911118031	3.36600017548	1.69553315639	0	0	0
-1.57834601402	3.30000019073	1.66228735447	0	0	0
-1.57931470871	3.32100009918	1.6728656292	0	0	0
-1.56787526608	3.31600022316	1.67034697533	0	0	0
-1.58090770245	3.3630001545	1.69402205944	0	0	0
-1.57078301907	3.36100006104	1.69301450253	0	0	0
-1.5588105917	3.35500025749	1.68999218941	0	0	0
-1.55010437965	3.35600018501	1.69049584866	0	0	0
-1.55149400234	3.37900018692	1.70208156109	0	0	0
-1.53587031364	3.36500024796	1.69502937794	0	0	0
-1.52712857723	3.36600017548	1.69553315639	0	0	0
-1.52334165573	3.3780002594	1.70157778263	0	0	0
-1.50873196125	3.36600017548	1.69553315639	0	0	0
-1.50487959385	3.3780002594	1.70157778263	0	0	0
-1.49254906178	3.3710000515	1.69805169106	0	0	0
-1.4674962759	3.33500027657	1.67991769314	0	0	0
-1.45619618893	3.33000016212	1.67739903927	0	0	0
-1.45622217655	3.35100007057	1.687977314	0	0	0
-1.45570135117	3.3710000515	1.69805169106	0	0	0
-1.45464253426	3.3900001049	1.70762252808	0	0	0
-1.4308822155	3.35600018501	1.69049584866	0	0	0
-1.41832220554	3.34800004959	1.68646609783	0	0	0
-1.4053850174	3.33900022507	1.68193256855	0	0	0
-1.37744295597	3.29400014877	1.65926492214	0	0	0
-1.38796687126	3.34100008011	1.68294000626	0	0	0
-1.37512266636	3.33200025558	1.67840647697	0	0	0
-1.36191749573	3.32200026512	1.67336928844	0	0	0
-1.37075793743	3.36600017548	1.69553315639	0	0	0
-1.37248122692	3.39300012589	1.70913362503	0	0	0
-1.33870124817	3.33200025558	1.67840647697	0	0	0
-1.32281219959	3.31500005722	1.66984319687	0	0	0
-1.31018650532	3.3060002327	1.66530966759	0	0	0
-1.2960357666	3.29300022125	1.65876126289	0	0	0
-1.28312861919	3.28300023079	1.65372407436	0	0	0
-1.26988792419	3.27200007439	1.64818322659	0	0	0
-1.26287341118	3.27700018883	1.65070176125	0	0	0
-1.25468361378	3.27900004387	1.65170919895	0	0	0
-1.24534320831	3.27800011635	1.65120542049	0	0	0
-1.23449957371	3.27300024033	1.64868688583	0	0	0
-1.22630429268	3.27500009537	1.64969420433	0	0	0
-1.21995675564	3.28200006485	1.65322041512	0	0	0
-1.2128329277	3.28700017929	1.65573894978	0	0	0
-1.20275175571	3.28400015831	1.65422773361	0	0	0
-1.19777619839	3.29500007629	1.65976881981	0	0	0
-1.18480336666	3.28400015831	1.65422773361	0	0	0
-1.17833554745	3.29100012779	1.65775382519	0	0	0
-1.17360603809	3.30300021172	1.66379857063	0	0	0
-1.1677531004	3.31200027466	1.66833209991	0	0	0
-1.15800273418	3.3100001812	1.667324543	0	0	0
-1.15069305897	3.31500005722	1.66984319687	0	0	0
-1.14163422585	3.31500005722	1.66984319687	0	0	0
-1.13291692734	3.31600022316	1.67034697533	0	0	0
-1.12249958515	3.31200027466	1.66833209991	0	0	0
-1.11580228806	3.31900024414	1.67185807228	0	0	0
-1.11640262604	3.34800004959	1.68646609783	0	0	0
-1.10890698433	3.35300016403	1.6889847517	0	0	0
-1.0990883112	3.35100007057	1.687977314	0	0	0
-1.08179974556	3.32600021362	1.67538416386	0	0	0
-1.07464587688	3.33200025558	1.67840647697	0	0	0
-1.06586027145	3.33300018311	1.67891013622	0	0	0
-1.05833745003	3.33800005913	1.6814289093	0	0	0
-1.04701554775	3.33100008965	1.67790281773	0	0	0
-1.0397824049	3.33700013161	1.68092525005	0	0	0
-1.03375196457	3.34700012207	1.68596243858	0	0	0
