%X	Y	Z	R	G	B
-1.21117544174	3.30700016022	1.8013689518	0	0	0
-1.2112262249	3.33200025558	1.81498682499	0	0	0
-1.18732881546	3.29100012779	1.79265356064	0	0	0
-1.19050908089	3.32500004768	1.81117391586	0	0	0
-1.18106758595	3.32400012016	1.81062924862	0	0	0
-1.17480480671	3.33200025558	1.81498682499	0	0	0
-1.16499972343	3.33000016212	1.81389737129	0	0	0
-1.15624701977	3.33100008965	1.81444215775	0	0	0
-1.15472078323	3.35300016403	1.82642591	0	0	0
-1.14555799961	3.35300016403	1.82642591	0	0	0
-1.13165044785	3.33900022507	1.81879985332	0	0	0
-1.11714696884	3.32300019264	1.81008434296	0	0	0
-1.11773633957	3.35200023651	1.82588112354	0	0	0
-1.11155283451	3.36100006104	1.83078360558	0	0	0
-1.10335218906	3.36400008202	1.83241772652	0	0	0
-1.09513521194	3.367000103	1.83405184746	0	0	0
-1.08528912067	3.36500024796	1.83296239376	0	0	0
-1.07449471951	3.36000013351	1.83023893833	0	0	0
-1.06753218174	3.367000103	1.83405184746	0	0	0
-1.05864548683	3.36800026894	1.8345965147	0	0	0
-1.04539108276	3.35500025749	1.82751524448	0	0	0
-1.03684055805	3.35700011253	1.82860469818	0	0	0
-1.03654456139	3.3860001564	1.84440147877	0	0	0
-1.02183055878	3.36800026894	1.8345965147	0	0	0
-1.01352882385	3.3710000515	1.83623063564	0	0	0
-0.999252080917	3.35400009155	1.82697057724	0	0	0
-0.993628978729	3.36600017548	1.83350718021	0	0	0
-0.985893011093	3.3710000515	1.83623063564	0	0	0
-0.976101577282	3.36900019646	1.83514118195	0	0	0
-0.978088080883	3.40800023079	1.85638523102	0	0	0
-0.967922210693	3.40500020981	1.85475099087	0	0	0
-0.959743499756	3.40900015831	1.85692989826	0	0	0
-0.948197305202	3.40100026131	1.85257208347	0	0	0
-0.937523126602	3.39600014687	1.84984862804	0	0	0
-0.924962878227	3.38400006294	1.84331190586	0	0	0
-0.916256606579	3.3860001564	1.84440147877	0	0	0
-0.910218119621	3.39800024033	1.85093784332	0	0	0
-0.902258098125	3.40300011635	1.85366153717	0	0	0
-0.894533097744	3.40900015831	1.85692989826	0	0	0
-0.878985226154	3.38500022888	1.8438565731	0	0	0
-0.874873757362	3.40500020981	1.85475099087	0	0	0
-0.869382083416	3.42000007629	1.86292159557	0	0	0
-0.862299442291	3.42900013924	1.86782407761	0	0	0
-0.852182805538	3.42600011826	1.86618995667	0	0	0
-0.846756696701	3.44200015068	1.87490534782	0	0	0
-0.835161268711	3.43300008774	1.87000286579	0	0	0
-0.819727897644	3.44700026512	1.87762904167	0	0	0
-0.804431378841	3.42200016975	1.86401116848	0	0	0
-0.799262285233	3.44000005722	1.87381589413	0	0	0
-0.791239440441	3.44600009918	1.87708413601	0	0	0
-0.780915021896	3.44200015068	1.87490534782	0	0	0
-0.772853970528	3.44800019264	1.87817370892	0	0	0
-0.766752839088	3.46300005913	1.88634443283	0	0	0
-0.750947713852	3.43400025368	1.87054777145	0	0	0
-0.751929104328	3.48200011253	1.89669382572	0	0	0
-0.743906438351	3.48900008202	1.90050697327	0	0	0
-0.734582424164	3.49000024796	1.90105164051	0	0	0
-0.724629878998	3.4880001545	1.89996218681	0	0	0
-0.712432980537	3.47500014305	1.8928809166	0	0	0
-0.702532291412	3.47300004959	1.89179158211	0	0	0
-0.69204390049	3.46800017357	1.88906788826	0	0	0
-0.67725276947	3.44100022316	1.87436068058	0	0	0
-0.671925365925	3.46200013161	1.88579964638	0	0	0
-0.657531023026	3.48600006104	1.89887285233	0	0	0
-0.643171787262	3.46000027657	1.88471031189	0	0	0
-0.634998679161	3.46700024605	1.88852322102	0	0	0
-0.615962028503	3.41400027275	1.85965335369	0	0	0
-0.612318634987	3.44600009918	1.87708413601	0	0	0
-0.606925785542	3.46900010109	1.8896125555	0	0	0
-0.599512755871	3.48100018501	1.89614915848	0	0	0
-0.578319847584	3.46800017357	1.88906788826	0	0	0
-0.561461687088	3.42300009727	1.86455583572	0	0	0
-0.555817365646	3.44600009918	1.87708413601	0	0	0
-0.547034740448	3.45000004768	1.8792630434	0	0	0
-0.536360263824	3.44200015068	1.87490534782	0	0	0
-0.52542334795	3.43200016022	1.86945819855	0	0	0
-0.514240384102	3.42000007629	1.86292159557	0	0	0
-0.501646697521	3.39800024033	1.85093784332	0	0	0
-0.497577279806	3.43400025368	1.87054777145	0	0	0
-0.486202895641	3.42000007629	1.86292159557	0	0	0
-0.416021287441	3.71100020409	2.02143335342	0	0	0
-0.407083332539	3.72200012207	2.02742528915	0	0	0
-0.233834654093	2.5150001049	1.3699555397	0	0	0
-0.227864339948	2.52500009537	1.37540268898	0	0	0
-0.221576854587	2.53200006485	1.37921571732	0	0	0
-0.215251103044	2.53900003433	1.38302862644	0	0	0
-0.188367202878	2.375	1.29369556904	0	0	0
-0.180575162172	2.35800004005	1.28443539143	0	0	0
-0.174574553967	2.36400008202	1.28770375252	0	0	0
-0.170247882605	2.39400005341	1.30404520035	0	0	0
-0.164526388049	2.40600013733	1.31058168411	0	0	0
-0.143323346972	2.27800011635	1.24085831642	0	0	0
-0.136376053095	2.26600003242	1.23432183266	0	0	0
-0.12983904779	2.25999999046	1.23105347157	0	0	0
-0.12360842526	2.25900006294	1.23050880432	0	0	0
-0.117175333202	2.25400018692	1.22778522968	0	0	0
-0.109784506261	2.22900009155	1.21416735649	0	0	0
-0.10164643079	2.1850001812	1.1901999712	0	0	0
-0.0949748903513	2.16900014877	1.18148458004	0	0	0
-0.0890066102147	2.16800022125	1.18093979359	0	0	0
-0.0833886936307	2.17600011826	1.18529748917	0	0	0
-0.0780473574996	2.1930000782	1.19455766678	0	0	0
-0.0717588365078	2.18400001526	1.18965518475	0	0	0
-0.065308637917	2.16800022125	1.18093979359	0	0	0
-0.059466317296	2.17100000381	1.18257391453	0	0	0
-0.0538788437843	2.1850001812	1.1901999712	0	0	0
-0.0481490828097	2.19600009918	1.19619178772	0	0	0
-0.0421864576638	2.19800019264	1.19728124142	0	0	0
-0.0363281294703	2.20700001717	1.20218360424	0	0	0
-0.0195734202862	2.36900019646	1.29042732716	0	0	0
-0.0129669439048	2.34500002861	1.27735412121	0	0	0
-0.00656995084137	2.34900021553	1.2795330286	0	0	0
-0.00015161029296	2.36100006104	1.28606963158	0	0	0
0.00630563031882	2.3630001545	1.28715908527	0	0	0
0.0127467960119	2.36000013351	1.28552496433	0	0	0
0.0191878322512	2.35900020599	1.28498017788	0	0	0
0.0256125386804	2.35700011253	1.28389072418	0	0	0
0.0319719165564	2.35100007057	1.2806224823	0	0	0
0.0384291559458	2.35300016403	1.28171181679	0	0	0
0.0448973253369	2.35500001907	1.28280138969	0	0	0
0.0515290126204	2.36400008202	1.28770375252	0	0	0
0.058038175106	2.36600017548	1.28879308701	0	0	0
0.0643128976226	2.35900020599	1.28498017788	0	0	0
0.0702494159341	2.34200000763	1.27572011948	0	0	0
0.0767148584127	2.34400010109	1.27680945396	0	0	0
0.0837231352925	2.36100006104	1.28606963158	0	0	0
0.0903660133481	2.36600017548	1.28879308701	0	0	0
0.0969134271145	2.36800003052	1.28988265991	0	0	0
0.102642260492	2.35100007057	1.2806224823	0	0	0
0.108602918684	2.34100008011	1.27517533302	0	0	0
0.114459805191	2.33000016212	1.2691835165	0	0	0
0.119789853692	2.3100001812	1.25828921795	0	0	0
0.125010594726	2.29000020027	1.2473949194	0	0	0
0.130236670375	2.27200007439	1.23759007454	0	0	0
0.114988617599	1.75500011444	0.955972969532	0	0	0
0.118214674294	1.73200011253	0.943444550037	0	0	0
0.122024893761	1.71900010109	0.936363279819	0	0	0
0.12686984241	1.72100007534	0.937452673912	0	0	0
0.132184430957	1.72900009155	0.941810429096	0	0	0
0.137305185199	1.73400008678	0.94453394413	0	0	0
0.133524343371	1.63000011444	0.887883722782	0	0	0
0.13653960824	1.61300003529	0.87862354517	0	0	0
0.141821265221	1.62300002575	0.884070694447	0	0	0
0.146436676383	1.62500011921	0.885160148144	0	0	0
0.151155859232	1.62800002098	0.88679432869	0	0	0
0.151494726539	1.58500003815	0.863371610641	0	0	0
0.153859809041	1.56500005722	0.852477371693	0	0	0
0.157227069139	1.55600011349	0.84757488966	0	0	0
0.161686703563	1.55800008774	0.848664283752	0	0	0
0.165837734938	1.55700004101	0.848119616508	0	0	0
0.170857265592	1.5640001297	0.851932585239	0	0	0
0.174683302641	1.56000006199	0.849753797054	0	0	0
0.18020811677	1.57100009918	0.85574555397	0	0	0
0.186145365238	1.58500003815	0.863371610641	0	0	0
0.192759990692	1.60400009155	0.873721182346	0	0	0
0.199109762907	1.62000012398	0.88243663311	0	0	0
0.203034177423	1.61600005627	0.880257725716	0	0	0
0.207450225949	1.61600005627	0.880257725716	0	0	0
0.21016189456	1.60300004482	0.873176455498	0	0	0
0.214274734259	1.60100007057	0.872087001801	0	0	0
0.218376666307	1.59900009632	0.870997607708	0	0	0
0.223024845123	1.60100007057	0.872087001801	0	0	0
0.22711583972	1.59900009632	0.870997607708	0	0	0
0.23206448555	1.60300004482	0.873176455498	0	0	0
0.237330004573	1.60900008678	0.876444756985	0	0	0
0.24112598598	1.60500001907	0.87426584959	0	0	0
0.243829354644	1.59400010109	0.86827403307	0	0	0
0.244915574789	1.57300007343	0.856835067272	0	0	0
0.241134047508	1.52200007439	0.82905459404	0	0	0
0.240780591965	1.49400007725	0.813802659512	0	0	0
0.242076978087	1.4770001173	0.804542481899	0	0	0
0.243780374527	1.46300005913	0.796916544437	0	0	0
0.24710085988	1.45900011063	0.794737637043	0	0	0
0.251087874174	1.45900011063	0.794737637043	0	0	0
0.256123840809	1.46500003338	0.79800593853	0	0	0
0.259772121906	1.46300005913	0.796916544437	0	0	0
0.264491260052	1.46700012684	0.799095332623	0	0	0
0.268500119448	1.46700012684	0.799095332623	0	0	0
0.273252040148	1.47100007534	0.801274240017	0	0	0
0.276140868664	1.46500003338	0.79800593853	0	0	0
0.281100392342	1.47000002861	0.800729513168	0	0	0
0.285505354404	1.47200012207	0.801818907261	0	0	0
0.289134532213	1.47000002861	0.800729513168	0	0	0
0.292353928089	1.46600008011	0.798550665379	0	0	0
0.295753598213	1.46300005913	0.796916544437	0	0	0
0.298931986094	1.45900011063	0.794737637043	0	0	0
0.303541839123	1.4620000124	0.796371757984	0	0	0
0.306695640087	1.4580000639	0.794192969799	0	0	0
0.310040652752	1.45500004292	0.792558789253	0	0	0
0.311858534813	1.44500005245	0.787111699581	0	0	0
0.316244393587	1.4470000267	0.788201093674	0	0	0
0.318649619818	1.44000005722	0.784388005733	0	0	0
0.309815704823	1.38300001621	0.753339350224	0	0	0
0.299309819937	1.32000005245	0.719022393227	0	0	0
0.298097848892	1.2990000248	0.707583427429	0	0	0
0.300254315138	1.29300010204	0.704315125942	0	0	0
0.303552746773	1.29200005531	0.703770399094	0	0	0
0.304468929768	1.28100001812	0.697778522968	0	0	0
0.307248264551	1.27800011635	0.696144402027	0	0	0
0.3107406497	1.27800011635	0.696144402027	0	0	0
0.314724802971	1.2800000906	0.697233855724	0	0	0
0.317476809025	1.27700006962	0.695599734783	0	0	0
0.320715129375	1.27600002289	0.69505494833	0	0	0
0.3236939013	1.27400004864	0.693965554237	0	0	0
0.326148122549	1.27000010014	0.691786706448	0	0	0
0.32935911417	1.26900005341	0.691241979599	0	0	0
0.332564622164	1.26800000668	0.69069725275	0	0	0
0.337089717388	1.27200007439	0.69287610054	0	0	0
0.338691532612	1.2650001049	0.689063131809	0	0	0
0.341066509485	1.26100003719	0.686884284019	0	0	0
0.343966037035	1.25900006294	0.685794830322	0	0	0
0.34851026535	1.26300001144	0.687973678112	0	0	0
0.353076338768	1.26700007915	0.690152525902	0	0	0
0.356820076704	1.26800000668	0.69069725275	0	0	0
0.359432756901	1.2650001049	0.689063131809	0	0	0
0.361455231905	1.26000010967	0.686339557171	0	0	0
0.364319235086	1.25800001621	0.685250103474	0	0	0
0.368049323559	1.25900006294	0.685794830322	0	0	0
0.371194720268	1.25800001621	0.685250103474	0	0	0
0.373143464327	1.25300002098	0.68252658844	0	0	0
0.375064849854	1.24800002575	0.679803013802	0	0	0
0.376958966255	1.24300003052	0.677079439163	0	0	0
0.381273686886	1.2460000515	0.678713560104	0	0	0
0.383752465248	1.24300003052	0.677079439163	0	0	0
0.388083577156	1.2460000515	0.678713560104	0	0	0
0.393687903881	1.25300002098	0.68252658844	0	0	0
0.394893467426	1.2460000515	0.678713560104	0	0	0
0.396700114012	1.24100005627	0.675989985466	0	0	0
0.398157030344	1.23500001431	0.672721743584	0	0	0
0.401857018471	1.23600006104	0.673266410828	0	0	0
0.403267472982	1.23000001907	0.669998109341	0	0	0
0.405306309462	1.22600007057	0.667819321156	0	0	0
0.407323300838	1.22200000286	0.665640473366	0	0	0
0.411670863628	1.22500002384	0.667274534702	0	0	0
0.415018409491	1.22500002384	0.667274534702	0	0	0
0.417682945728	1.22300004959	0.66618514061	0	0	0
0.418615221977	1.21600008011	0.662372171879	0	0	0
0.421244204044	1.21400010586	0.661282718182	0	0	0
0.423162817955	1.21000003815	0.659103870392	0	0	0
0.425059556961	1.20600008965	0.656925022602	0	0	0
0.430131137371	1.21100008488	0.65964859724	0	0	0
0.434514194727	1.21400010586	0.661282718182	0	0	0
0.439634948969	1.21900010109	0.66400629282	0	0	0
0.440059036016	1.21100008488	0.65964859724	0	0	0
0.440439403057	1.20300006866	0.655290842056	0	0	0
0.442989140749	1.20100009441	0.654201447964	0	0	0
0.451844841242	1.21600008011	0.662372171879	0	0	0
0.454793512821	1.21500003338	0.66182744503	0	0	0
0.46150714159	1.22400009632	0.666729867458	0	0	0
0.465991348028	1.2270001173	0.6683639884	0	0	0
0.467431783676	1.22200000286	0.665640473366	0	0	0
0.466533452272	1.21100008488	0.65964859724	0	0	0
0.468678772449	1.2080000639	0.658014416695	0	0	0
0.471589177847	1.20700001717	0.657469749451	0	0	0
0.475280970335	1.2080000639	0.658014416695	0	0	0
0.477393567562	1.20500004292	0.656380295753	0	0	0
0.479888647795	1.20300006866	0.655290842056	0	0	0
0.479962944984	1.19500005245	0.650933146477	0	0	0
0.48363289237	1.19600009918	0.651477873325	0	0	0
0.490972280502	1.20600008965	0.656925022602	0	0	0
0.490169495344	1.19600009918	0.651477873325	0	0	0
0.497563540936	1.20600008965	0.656925022602	0	0	0
0.500028550625	1.20400011539	0.655835568905	0	0	0
0.501646578312	1.20000004768	0.653656721115	0	0	0
0.502401173115	1.19400000572	0.650388419628	0	0	0
0.50397002697	1.19000005722	0.648209571838	0	0	0
0.499975919724	1.17300009727	0.638949453831	0	0	0
0.492457151413	1.14800000191	0.625331580639	0	0	0
0.48393830657	1.1210000515	0.610624313354	0	0	0
0.479181826115	1.10300004482	0.600819468498	0	0	0
0.481758832932	1.10199999809	0.60027474165	0	0	0
0.467614144087	1.06300008297	0.579030930996	0	0	0
0.470519006252	1.06300008297	0.579030930996	0	0	0
0.462289720774	1.03800010681	0.565413057804	0	0	0
0.460645288229	1.02799999714	0.559965908527	0	0	0
0.46390530467	1.02900004387	0.560510635376	0	0	0
0.463088780642	1.02100002766	0.556152939796	0	0	0
0.459034383297	1.00600004196	0.547982215881	0	0	0
0.455816119909	0.993000030518	0.540900945663	0	0	0
0.452526777983	0.980000019073	0.533819675446	0	0	0
0.461243271828	0.993000030518	0.540900945663	0	0	0
0.457882851362	0.980000019073	0.533819675446	0	0	0
0.457741141319	0.974000036716	0.530551373959	0	0	0
0.461348176003	0.976000070572	0.531640827656	0	0	0
0.469720393419	0.988000035286	0.538177371025	0	0	0
0.47433295846	0.992000043392	0.540356218815	0	0	0
0.48906609416	1.01700007915	0.553974032402	0	0	0
0.494746983051	1.02300000191	0.557242393494	0	0	0
0.494624406099	1.01700007915	0.553974032402	0	0	0
0.497892618179	1.01800000668	0.554518818855	0	0	0
0.501166343689	1.01900005341	0.555063486099	0	0	0
0.506918251514	1.02500009537	0.558331787586	0	0	0
0.513200283051	1.03200006485	0.562144815922	0	0	0
0.513020336628	1.02600002289	0.55887645483	0	0	0
0.518840610981	1.03200006485	0.562144815922	0	0	0
0.518627822399	1.02600002289	0.55887645483	0	0	0
0.513300061226	1.00999999046	0.550161063671	0	0	0
0.516571104527	1.01100003719	0.55070579052	0	0	0
0.530121207237	1.03200006485	0.562144815922	0	0	0
0.532424867153	1.03100001812	0.561600089073	0	0	0
0.537838041782	1.03600001335	0.564323663712	0	0	0
0.52866590023	1.01300001144	0.551795184612	0	0	0
0.533007919788	1.01600003242	0.553429365158	0	0	0
0.545276582241	1.0340000391	0.563234210014	0	0	0
0.54439163208	1.02700006962	0.559421241283	0	0	0
0.535476267338	1.00499999523	0.547437548637	0	0	0
0.536615967751	1.00200009346	0.545803368092	0	0	0
0.540969014168	1.00499999523	0.547437548637	0	0	0
0.544256389141	1.00600004196	0.547982215881	0	0	0
0.550267934799	1.01200008392	0.551250517368	0	0	0
0.550301074982	1.00700008869	0.54852694273	0	0	0
0.547011554241	0.996000051498	0.542535066605	0	0	0
0.544765889645	0.987000048161	0.537632644176	0	0	0
0.539142906666	0.972000062466	0.529461979866	0	0	0
0.545143544674	0.978000044823	0.532730221748	0	0	0
0.554537832737	0.990000069141	0.539266824722	0	0	0
0.550488710403	0.978000044823	0.532730221748	0	0	0
0.565604627132	1.0	0.544713914394	0	0	0
0.568337321281	1.0	0.544713914394	0	0	0
0.571641087532	1.00100004673	0.545258641243	0	0	0
0.573228895664	0.999000072479	0.54416924715	0	0	0
0.574805796146	0.997000038624	0.543079793453	0	0	0
0.574054718018	0.991000056267	0.539811491966	0	0	0
0.586656808853	1.00800001621	0.549071669579	0	0	0
0.588826656342	1.00700008869	0.54852694273	0	0	0
0.59216594696	1.00800001621	0.549071669579	0	0	0
0.595510721207	1.00900006294	0.549616336823	0	0	0
0.601232647896	1.01400005817	0.552339971066	0	0	0
0.593877315521	0.997000038624	0.543079793453	0	0	0
0.594208240509	0.993000030518	0.540900945663	0	0	0
0.592112779617	0.98500007391	0.536543250084	0	0	0
0.596616029739	0.988000035286	0.538177371025	0	0	0
0.597496211529	0.98500007391	0.536543250084	0	0	0
0.600187897682	0.98500007391	0.536543250084	0	0	0
0.602267503738	0.98400002718	0.535998523235	0	0	0
0.599423408508	0.975000023842	0.531096041203	0	0	0
0.600235164165	0.972000062466	0.529461979866	0	0	0
0.597309052944	0.963000059128	0.524559557438	0	0	0
0.597448647022	0.959000051022	0.522380709648	0	0	0
0.604449391365	0.966000020504	0.526193678379	0	0	0
0.602689981461	0.959000051022	0.522380709648	0	0	0
0.602154672146	0.95400005579	0.51965713501	0	0	0
0.600324213505	0.947000026703	0.515844106674	0	0	0
0.603548705578	0.948000073433	0.516388833523	0	0	0
0.606139361858	0.948000073433	0.516388833523	0	0	0
0.608729958534	0.948000073433	0.516388833523	0	0	0
0.61132055521	0.948000073433	0.516388833523	0	0	0
0.610025644302	0.942000031471	0.513120532036	0	0	0
0.615201115608	0.946000039577	0.515299379826	0	0	0
0.619745373726	0.949000060558	0.516933500767	0	0	0
0.630863904953	0.962000072002	0.524014770985	0	0	0
0.624932050705	0.949000060558	0.516933500767	0	0	0
0.639427900314	0.967000067234	0.526738405228	0	0	0
0.647382259369	0.975000023842	0.531096041203	0	0	0
0.630711913109	0.946000039577	0.515299379826	0	0	0
0.629280328751	0.94000005722	0.512031078339	0	0	0
0.635882139206	0.946000039577	0.515299379826	0	0	0
0.646566271782	0.958000063896	0.521835923195	0	0	0
0.663414776325	0.979000031948	0.533274948597	0	0	0
0.630029976368	0.926000058651	0.504405081272	0	0	0
0.618215203285	0.905000030994	0.492966115475	0	0	0
0.639891862869	0.933000028133	0.508218109608	0	0	0
0.629358530045	0.914000034332	0.497868537903	0	0	0
-8.12639808655	11.5700006485	6.27072286606	0	0	0
-7.23357248306	10.5450000763	5.71519231796	0	0	0
-2.25996184349	3.32100009918	1.79991972446	0	0	0
-2.04343748093	3.20900011063	1.73921775818	0	0	0
-2.00831484795	3.22300004959	1.74680542946	0	0	0
-6.65960121155	10.8300008774	5.86965703964	0	0	0
-1.97185146809	3.25000023842	1.76143908501	0	0	0
-1.95408892632	3.25000023842	1.76143908501	0	0	0
-1.97214126587	3.29500007629	1.78582823277	0	0	0
-1.92500638962	3.23100018501	1.75114142895	0	0	0
-1.92803812027	3.25100016594	1.76198101044	0	0	0
-1.90439426899	3.24100017548	1.75656116009	0	0	0
-1.86275994778	3.21500015259	1.74246966839	0	0	0
-1.83071219921	3.23600006104	1.75385117531	0	0	0
-1.81302607059	3.23600006104	1.75385117531	0	0	0
-1.75678563118	3.21400022507	1.74192774296	0	0	0
-1.68469262123	3.14500021935	1.70453095436	0	0	0
-1.47160053253	3.20500016212	1.73704993725	0	0	0
-1.45051884651	3.17800021172	1.7224162817	0	0	0
-1.45136189461	3.19900012016	1.73379802704	0	0	0
-1.44487476349	3.2040002346	1.73650801182	0	0	0
-1.40733647346	3.25900006294	1.76631689072	0	0	0
-1.35655105114	3.28700017929	1.78149235249	0	0	0
-1.3385862112	3.28700017929	1.78149235249	0	0	0
-1.33324432373	3.29600024223	1.7863701582	0	0	0
-1.31620192528	3.27600026131	1.77553057671	0	0	0
-1.30844676495	3.27900004387	1.77715659142	0	0	0
-1.28482294083	3.242000103	1.75710308552	0	0	0
-1.2999714613	3.30300021172	1.79016399384	0	0	0
-1.29329037666	3.30900025368	1.79341590405	0	0	0
-1.26406633854	3.2570002079	1.76523292065	0	0	0
-1.25863432884	3.26600027084	1.77011072636	0	0	0
-1.25200510025	3.27200007439	1.77336275578	0	0	0
-1.23529100418	3.29900026321	1.7879961729	0	0	0
-1.2214435339	3.28600025177	1.78095042706	0	0	0
-1.2191054821	3.30400013924	1.79070591927	0	0	0
-1.20092058182	3.27900004387	1.77715659142	0	0	0
-1.20650053024	3.31900024414	1.79883575439	0	0	0
-1.20464634895	3.33900022507	1.80967533588	0	0	0
-1.18370628357	3.3060002327	1.79179000854	0	0	0
-1.1792910099	3.31900024414	1.79883575439	0	0	0
-1.17022120953	3.31900024414	1.79883575439	0	0	0
-1.16464984417	3.3290002346	1.80425548553	0	0	0
-1.15520560741	3.32800006866	1.8037135601	0	0	0
-1.15403199196	3.35100007057	1.8161791563	0	0	0
-1.14179980755	3.34200024605	1.81130123138	0	0	0
-1.12554991245	3.32100009918	1.79991972446	0	0	0
-1.11882781982	3.32800006866	1.8037135601	0	0	0
-1.11406838894	3.34100008011	1.81075930595	0	0	0
-1.10857641697	3.35200023651	1.81672108173	0	0	0
-1.10499215126	3.36900019646	1.82593476772	0	0	0
-1.09871292114	3.3780002594	1.83081257343	0	0	0
-1.08593416214	3.367000103	1.82485091686	0	0	0
-1.0760935545	3.36500024796	1.82376682758	0	0	0
-1.06816625595	3.36900019646	1.82593476772	0	0	0
-1.05801677704	3.36600017548	1.82430887222	0	0	0
-1.04913020134	3.367000103	1.82485091686	0	0	0
-1.04178225994	3.37300014496	1.82810282707	0	0	0
-1.03072822094	3.367000103	1.82485091686	0	0	0
-1.01758301258	3.35400009155	1.8178050518	0	0	0
-1.01232612133	3.367000103	1.82485091686	0	0	0
-1.0061044693	3.37700009346	1.830270648	0	0	0
-0.997466504574	3.37900018692	1.83135473728	0	0	0
-0.988817632198	3.38100004196	1.83243858814	0	0	0
-0.977550268173	3.37400007248	1.8286447525	0	0	0
-0.972061157227	3.38700008392	1.83569049835	0	0	0
-0.970764875412	3.41500020027	1.85086596012	0	0	0
-0.958898901939	3.40600013733	1.84598815441	0	0	0
-0.948754966259	3.40300011635	1.8443621397	0	0	0
-0.933658182621	3.3820002079	1.83298051357	0	0	0
-0.921956121922	3.37300014496	1.82810282707	0	0	0
-0.920586228371	3.40200018883	1.84382021427	0	0	0
-0.912093162537	3.40500020981	1.84544622898	0	0	0
-0.906765401363	3.42000007629	1.85357582569	0	0	0
-0.895845115185	3.41400027275	1.85032391548	0	0	0
-0.887294650078	3.41700005531	1.85194981098	0	0	0
-0.876158475876	3.41000008583	1.84815597534	0	0	0
-0.869382083416	3.42000007629	1.85357582569	0	0	0
-0.860287666321	3.42100024223	1.85411787033	0	0	0
-0.852928996086	3.42900013924	1.8584536314	0	0	0
-0.843558609486	3.42900013924	1.8584536314	0	0	0
-0.83345836401	3.42600011826	1.8568277359	0	0	0
-0.825539410114	3.43200016022	1.86007964611	0	0	0
-0.816160798073	3.43200016022	1.86007964611	0	0	0
-0.812424004078	3.45600008965	1.87308704853	0	0	0
-0.80112105608	3.44800019264	1.86875128746	0	0	0
-0.795372486115	3.46400022507	1.87742304802	0	0	0
-0.780234396458	3.4390001297	1.86387348175	0	0	0
-0.76971590519	3.43400025368	1.86116361618	0	0	0
-0.764538645744	3.45300006866	1.87146115303	0	0	0
-0.760132312775	3.47600007057	1.88392686844	0	0	0
-0.751713216305	3.48100018501	1.88663673401	0	0	0
-0.743053555489	3.48500013351	1.88880455494	0	0	0
-0.734582424164	3.49000024796	1.89151453972	0	0	0
-0.725045323372	3.49000024796	1.89151453972	0	0	0
-0.711407899857	3.47000026703	1.88067495823	0	0	0
-0.701318562031	3.46700024605	1.87904894352	0	0	0
-0.692243397236	3.46900010109	1.88013291359	0	0	0
-0.679417729378	3.45200014114	1.8709192276	0	0	0
-0.668043613434	3.44200015068	1.86549937725	0	0	0
-0.662464737892	3.46200013161	1.87633895874	0	0	0
-0.656022071838	3.47800016403	1.8850107193	0	0	0
-0.644658863544	3.46800017357	1.87959098816	0	0	0
-0.631885051727	3.45000004768	1.86983513832	0	0	0
-0.625524401665	3.46700024605	1.87904894352	0	0	0
-0.606051027775	3.46400022507	1.87742304802	0	0	0
-0.597962737083	3.47200012207	1.88175880909	0	0	0
-0.588474810123	3.47200012207	1.88175880909	0	0	0
-0.575985193253	3.4540002346	1.87200319767	0	0	0
-0.563429951668	3.4350001812	1.86170554161	0	0	0
-0.554365754128	3.43700027466	1.86278939247	0	0	0
-0.547827541828	3.45500016212	1.8725451231	0	0	0
-0.537762761116	3.45100021362	1.87037730217	0	0	0
-0.527260541916	3.44400024414	1.86658346653	0	0	0
-0.515593707561	3.42900013924	1.8584536314	0	0	0
-0.503418266773	3.41000008583	1.84815597534	0	0	0
-0.498881399632	3.4430000782	1.86604130268	0	0	0
-0.477275371552	3.42300009727	1.85520172119	0	0	0
-0.407630175352	3.72700023651	2.01996397972	0	0	0
-0.234392508864	2.52100014687	1.36633467674	0	0	0
-0.228135079145	2.52800011635	1.37012851238	0	0	0
-0.221751868725	2.53400015831	1.37338042259	0	0	0
-0.213555544615	2.51900005341	1.36525070667	0	0	0
-0.188129261136	2.37200021744	1.28557944298	0	0	0
-0.180115684867	2.35199999809	1.27473986149	0	0	0
-0.173540696502	2.35000014305	1.27365601063	0	0	0
-0.168185561895	2.36500000954	1.28178560734	0	0	0
-0.162064641714	2.37000012398	1.28449559212	0	0	0
-0.156441584229	2.38300013542	1.29154133797	0	0	0
-0.146343320608	2.32600021362	1.26064836979	0	0	0
-0.136436223984	2.26700019836	1.22867143154	0	0	0
-0.129494339228	2.25400018692	1.22162568569	0	0	0
-0.123389557004	2.25500011444	1.22216773033	0	0	0
-0.116811431944	2.24700021744	1.21783185005	0	0	0
-0.109587498009	2.22500014305	1.20590817928	0	0	0
-0.101972073317	2.19200015068	1.18802285194	0	0	0
-0.0954565480351	2.18000006676	1.18151915073	0	0	0
-0.0892118811607	2.17300009727	1.17772519588	0	0	0
-0.0833503678441	2.17500019073	1.17880916595	0	0	0
-0.0776558741927	2.18200016022	1.1826031208	0	0	0
-0.0717259794474	2.18300008774	1.18314504623	0	0	0
-0.0655195042491	2.17500019073	1.17880916595	0	0	0
-0.0595211014152	2.17300009727	1.17772519588	0	0	0
-0.0538788437843	2.1850001812	1.1842290163	0	0	0
-0.0479736737907	2.18800020218	1.1858549118	0	0	0
-0.0420137234032	2.1890001297	1.18639695644	0	0	0
-0.0361306034029	2.19500017166	1.18964886665	0	0	0
-0.0305304322392	2.22400021553	1.20536625385	0	0	0
-0.0252555459738	2.29700016975	1.24493098259	0	0	0
-0.0195568948984	2.367000103	1.28286957741	0	0	0
-0.0130498884246	2.36000013351	1.27907574177	0	0	0
-0.006606310606	2.36200022697	1.28015971184	0	0	0
-0.000151867148816	2.36500000954	1.28178560734	0	0	0
0.00631897291169	2.36800003052	1.28341162205	0	0	0
0.012795407325	2.36900019646	1.28395354748	0	0	0
0.0192773062736	2.37000012398	1.28449559212	0	0	0
0.0257429368794	2.36900019646	1.28395354748	0	0	0
0.0321351066232	2.3630001545	1.28070175648	0	0	0
0.0385434776545	2.36000013351	1.27907574177	0	0	0
0.0450689084828	2.36400008202	1.28124368191	0	0	0
0.0516162030399	2.36800003052	1.28341162205	0	0	0
0.0581117644906	2.36900019646	1.28395354748	0	0	0
0.064367428422	2.36100006104	1.2796176672	0	0	0
0.0706693530083	2.35600018501	1.27690780163	0	0	0
0.0771075934172	2.35600018501	1.27690780163	0	0	0
0.0838649794459	2.36500000954	1.28178560734	0	0	0
0.0905187875032	2.37000012398	1.28449559212	0	0	0
0.0970362126827	2.3710000515	1.28503751755	0	0	0
0.103122510016	2.36200022697	1.28015971184	0	0	0
0.107814267278	2.32400012016	1.25956439972	0	0	0
0.113526441157	2.31100010872	1.25251865387	0	0	0
0.119426853955	2.30300021172	1.2481828928	0	0	0
0.124792225659	2.28600001335	1.2389690876	0	0	0
0.131096497178	2.28700017929	1.23951113224	0	0	0
0.113612681627	1.73400008678	0.93979549408	0	0	0
0.117668643594	1.72400009632	0.93437564373	0	0	0
0.121882915497	1.71700012684	0.93058180809	0	0	0
0.126796126366	1.72000002861	0.93220770359	0	0	0
0.131878614426	1.72500002384	0.93491756916	0	0	0
0.134454548359	1.69800007343	0.920284152031	0	0	0
0.133278593421	1.62700009346	0.881803452969	0	0	0
0.137132152915	1.62000012398	0.878009617329	0	0	0
0.141646504402	1.6210000515	0.878551542759	0	0	0
0.146797135472	1.62900006771	0.882887423038	0	0	0
0.149948835373	1.61500012875	0.875299751759	0	0	0
0.151303574443	1.5830000639	0.85795634985	0	0	0
0.154351353645	1.57000005245	0.850910544395	0	0	0
0.157833337784	1.56200003624	0.846574723721	0	0	0
0.16179049015	1.55900001526	0.844948768616	0	0	0
0.165411695838	1.55300009251	0.841696858406	0	0	0
0.169655576348	1.55300009251	0.841696858406	0	0	0
0.174235388637	1.55600011349	0.843322813511	0	0	0
0.179863989353	1.5680000782	0.84982663393	0	0	0
0.185793042183	1.58200001717	0.85741430521	0	0	0
0.194081917405	1.61500012875	0.875299751759	0	0	0
0.199109762907	1.62000012398	0.878009617329	0	0	0
0.203159824014	1.617000103	0.876383662224	0	0	0
0.207706972957	1.61800003052	0.876925587654	0	0	0
0.211604058743	1.61400008202	0.874757707119	0	0	0
0.215345442295	1.60900008678	0.872047841549	0	0	0
0.2202886343	1.61300003529	0.874215722084	0	0	0
0.224557176232	1.61200010777	0.873673796654	0	0	0
0.228110074997	1.6060000658	0.870421886444	0	0	0
0.231774941087	1.60100007057	0.867711961269	0	0	0
0.236297503114	1.6020001173	0.868254005909	0	0	0
0.24112598598	1.60500001907	0.869879841805	0	0	0
0.244288250804	1.59700012207	0.86554402113	0	0	0
0.244604170322	1.57100009918	0.851452469826	0	0	0
0.241450920701	1.52400004864	0.825979351997	0	0	0
0.240619435906	1.49300003052	0.809177994728	0	0	0
0.242896467447	1.48200011253	0.803216159344	0	0	0
0.244780153036	1.46900010109	0.796170413494	0	0	0
0.24794767797	1.46400010586	0.793460488319	0	0	0
0.251432061195	1.46100008488	0.791834533215	0	0	0
0.255599379539	1.4620000124	0.792376577854	0	0	0
0.258706778288	1.45700001717	0.789666652679	0	0	0
0.263409495354	1.46100008488	0.791834533215	0	0	0
0.268317103386	1.46600008011	0.794544517994	0	0	0
0.273252040148	1.47100007534	0.797254443169	0	0	0
0.277271836996	1.47100007534	0.797254443169	0	0	0
0.280909180641	1.46900010109	0.796170413494	0	0	0
0.285699337721	1.47300004959	0.798338353634	0	0	0
0.289724588394	1.47300004959	0.798338353634	0	0	0
0.29315161705	1.47000002861	0.796712398529	0	0	0
0.295349270105	1.46100008488	0.791834533215	0	0	0
0.299341738224	1.46100008488	0.791834533215	0	0	0
0.303749471903	1.46300005913	0.792918562889	0	0	0
0.308168113232	1.46500003338	0.794002532959	0	0	0
0.310466825962	1.45700001717	0.789666652679	0	0	0
0.313585102558	1.45300006866	0.78749871254	0	0	0
0.316462934017	1.44800007343	0.784788787365	0	0	0
0.317764490843	1.43600010872	0.778285086155	0	0	0
0.309591710567	1.38200008869	0.749018132687	0	0	0
0.298402816057	1.31600010395	0.713247299194	0	0	0
0.298327326775	1.30000007153	0.70457559824	0	0	0
0.300022095442	1.29200005531	0.700239777565	0	0	0
0.303552746773	1.29200005531	0.700239777565	0	0	0
0.304468929768	1.28100001812	0.694277942181	0	0	0
0.307969510555	1.28100001812	0.694277942181	0	0	0
0.310254365206	1.27600002289	0.691568076611	0	0	0
0.314970672131	1.28100001812	0.694277942181	0	0	0
0.316979587078	1.27500009537	0.691026091576	0	0	0
0.320715129375	1.27600002289	0.691568076611	0	0	0
0.323439836502	1.27300000191	0.689942121506	0	0	0
0.325891315937	1.26900005341	0.687774181366	0	0	0
0.32832095027	1.2650001049	0.685606300831	0	0	0
0.331515520811	1.26400005817	0.685064256191	0	0	0
0.335234671831	1.2650001049	0.685606300831	0	0	0
0.338423788548	1.26400005817	0.685064256191	0	0	0
0.340255081654	1.25800001621	0.681812405586	0	0	0
0.344239234924	1.26000010967	0.682896375656	0	0	0
0.348234325647	1.26200008392	0.683980345726	0	0	0
0.352797657251	1.26600003242	0.686148226261	0	0	0
0.35569447279	1.26400005817	0.685064256191	0	0	0
0.35971686244	1.26600003242	0.686148226261	0	0	0
0.362889617682	1.2650001049	0.685606300831	0	0	0
0.366346478462	1.2650001049	0.685606300831	0	0	0
0.368341654539	1.26000010967	0.682896375656	0	0	0
0.370014458895	1.25400006771	0.679644465446	0	0	0
0.370463252068	1.24400007725	0.674224674702	0	0	0
0.372360080481	1.23900008202	0.671514749527	0	0	0
0.37635242939	1.24100005627	0.672598719597	0	0	0
0.381273686886	1.2460000515	0.675308585167	0	0	0
0.384369909763	1.24500000477	0.674766659737	0	0	0
0.385591864586	1.23800003529	0.670972764492	0	0	0
0.391174346209	1.24500000477	0.674766659737	0	0	0
0.392358034849	1.23800003529	0.670972764492	0	0	0
0.39414280653	1.23300004005	0.668262839317	0	0	0
0.397834599018	1.23400008678	0.668804824352	0	0	0
0.400881648064	1.23300004005	0.668262839317	0	0	0
0.404578924179	1.23400008678	0.668804824352	0	0	0
0.407289862633	1.23200011253	0.667720913887	0	0	0
0.408989965916	1.2270001173	0.665010988712	0	0	0
0.410998761654	1.22300004959	0.662843048573	0	0	0
0.41467961669	1.22400009632	0.663385033607	0	0	0
0.418024420738	1.22400009632	0.663385033607	0	0	0
0.419647991657	1.21900010109	0.660675108433	0	0	0
0.421244204044	1.21400010586	0.657965242863	0	0	0
0.423162817955	1.21000003815	0.655797302723	0	0	0
0.425412029028	1.20700001717	0.654171347618	0	0	0
0.429420769215	1.20900011063	0.655255317688	0	0	0
0.434514194727	1.21400010586	0.657965242863	0	0	0
0.438913673162	1.21700000763	0.659591138363	0	0	0
0.43824210763	1.20600008965	0.653629362583	0	0	0
0.436412096024	1.19200003147	0.646041631699	0	0	0
0.438931763172	1.19000005722	0.644957661629	0	0	0
0.447014272213	1.20300006866	0.652003407478	0	0	0
0.451798975468	1.20700001717	0.654171347618	0	0	0
0.461884230375	1.22500002384	0.663927018642	0	0	0
0.465231776237	1.22500002384	0.663927018642	0	0	0
0.465519219637	1.21700000763	0.659591138363	0	0	0
0.466148167849	1.21000003815	0.655797302723	0	0	0
0.469454735518	1.21000003815	0.655797302723	0	0	0
0.471979886293	1.2080000639	0.654713332653	0	0	0
0.475674450397	1.20900011063	0.655255317688	0	0	0
0.476997375488	1.20400011539	0.652545392513	0	0	0
0.474702805281	1.19000005722	0.644957661629	0	0	0
0.475946515799	1.18500006199	0.642247796059	0	0	0
0.48363289237	1.19600009918	0.648209571838	0	0	0
0.490565180779	1.20500004292	0.653087437153	0	0	0
0.492628544569	1.20200002193	0.651461482048	0	0	0
0.497150987387	1.20500004292	0.653087437153	0	0	0
0.4991979599	1.20200002193	0.651461482048	0	0	0
0.501646578312	1.20000004768	0.650377452374	0	0	0
0.505346596241	1.20100009441	0.650919497013	0	0	0
0.506934583187	1.1970000267	0.648751556873	0	0	0
0.496992230415	1.16600000858	0.631950080395	0	0	0
0.482161879539	1.12400007248	0.609186947346	0	0	0
0.480484694242	1.11300003529	0.603225111961	0	0	0
0.478747397661	1.10199999809	0.597263336182	0	0	0
0.476075649261	1.08900010586	0.590217530727	0	0	0
0.469373732805	1.06700003147	0.578293979168	0	0	0
0.470519006252	1.06300008297	0.576126039028	0	0	0
0.466743379831	1.04800009727	0.567996382713	0	0	0
0.468711048365	1.04600000381	0.566912353039	0	0	0
0.461200356483	1.02300000191	0.554446816444	0	0	0
0.461728066206	1.01800000668	0.55173689127	0	0	0
0.459034383297	1.00600004196	0.545233130455	0	0	0
0.45719319582	0.996000051498	0.539813280106	0	0	0
0.4548355937	0.98500007391	0.533851504326	0	0	0
0.453346848488	0.976000070572	0.528973698616	0	0	0
0.460219025612	0.98500007391	0.533851504326	0	0	0
0.458681076765	0.976000070572	0.528973698616	0	0	0
0.460875511169	0.975000023842	0.528431713581	0	0	0
0.467818707228	0.98400002718	0.533309578896	0	0	0
0.47863638401	1.00100004673	0.542523264885	0	0	0
0.482333600521	1.00300002098	0.54360717535	0	0	0
0.489910751581	1.01300001144	0.549026966095	0	0	0
0.498515188694	1.02500009537	0.555530786514	0	0	0
0.506207108498	1.03500008583	0.560950577259	0	0	0
0.508051812649	1.03299999237	0.559866607189	0	0	0
0.504445493221	1.02000010014	0.55282086134	0	0	0
0.510216593742	1.02600002289	0.556072711945	0	0	0
0.514520347118	1.02900004387	0.557698667049	0	0	0
0.507780015469	1.00999999046	0.547401070595	0	0	0
0.520144283772	1.02900004387	0.557698667049	0	0	0
0.513300061226	1.00999999046	0.547401070595	0	0	0
0.515038192272	1.00800001621	0.546317100525	0	0	0
0.528580129147	1.02900004387	0.557698667049	0	0	0
0.536039829254	1.03800010681	0.562576532364	0	0	0
0.538876354694	1.03800010681	0.562576532364	0	0	0
0.542234778404	1.03900003433	0.563118517399	0	0	0
0.541926383972	1.03299999237	0.559866607189	0	0	0
0.541057825089	1.02600002289	0.556072711945	0	0	0
0.540151059628	1.01900005341	0.552278876305	0	0	0
0.543468475342	1.02000010014	0.55282086134	0	0	0
0.534473836422	0.998000025749	0.54089730978	0	0	0
0.53612446785	0.996000051498	0.539813280106	0	0	0
0.539928257465	0.998000025749	0.54089730978	0	0	0
0.54428678751	1.00100004673	0.542523264885	0	0	0
0.547568678856	1.00200009346	0.543065190315	0	0	0
0.551405251026	1.00400006771	0.544149160385	0	0	0
0.550285279751	0.997000038624	0.540355324745	0	0	0
0.550236403942	0.992000043392	0.537645339966	0	0	0
0.550160229206	0.987000048161	0.534935474396	0	0	0
0.559018909931	0.998000025749	0.54089730978	0	0	0
0.555554568768	0.987000048161	0.534935474396	0	0	0
0.564473390579	0.998000025749	0.54089730978	0	0	0
0.562653899193	0.990000069141	0.536561429501	0	0	0
0.566501438618	0.992000043392	0.537645339966	0	0	0
0.574376523495	1.00100004673	0.542523264885	0	0	0
0.57249969244	0.993000030518	0.538187384605	0	0	0
0.568841278553	0.982000052929	0.532225549221	0	0	0
0.575016796589	0.988000035286	0.535477459431	0	0	0
0.587072432041	1.00400006771	0.544149160385	0	0	0
0.585116326809	0.996000051498	0.539813280106	0	0	0
0.592559695244	1.00400006771	0.544149160385	0	0	0
0.601232647896	1.01400005817	0.549569010735	0	0	0
0.602812290192	1.01200008392	0.54848498106	0	0	0
0.596601843834	0.997000038624	0.540355324745	0	0	0
0.59752291441	0.994000017643	0.53872936964	0	0	0
0.595408320427	0.986000061035	0.534393489361	0	0	0
0.602955520153	0.994000017643	0.53872936964	0	0	0
0.600797176361	0.986000061035	0.534393489361	0	0	0
0.602267503738	0.98400002718	0.533309578896	0	0	0
0.601882576942	0.979000031948	0.530599594116	0	0	0
0.60270524025	0.976000070572	0.528973698616	0	0	0
0.600410342216	0.968000054359	0.524637818336	0	0	0
0.597448647022	0.959000051022	0.519760012627	0	0	0
0.605700790882	0.968000054359	0.524637818336	0	0	0
0.601433098316	0.957000017166	0.518676042557	0	0	0
0.598998725414	0.949000060558	0.514340162277	0	0	0
0.595886766911	0.94000005722	0.509462356567	0	0	0
0.603548705578	0.948000073433	0.513798236847	0	0	0
0.605499982834	0.947000026703	0.513256251812	0	0	0
0.599098145962	0.933000028133	0.505668520927	0	0	0
0.610675692558	0.947000026703	0.513256251812	0	0	0
0.604197382927	0.933000028133	0.505668520927	0	0	0
0.608697891235	0.936000049114	0.507294416428	0	0	0
0.632806420326	0.969000041485	0.525179803371	0	0	0
0.634142816067	0.967000067234	0.524095892906	0	0	0
0.638102412224	0.969000041485	0.525179803371	0	0	0
0.639427900314	0.967000067234	0.524095892906	0	0	0
0.640078425407	0.964000046253	0.522469937801	0	0	0
0.638045787811	0.957000017166	0.518676042557	0	0	0
0.644677639008	0.963000059128	0.521927952766	0	0	0
0.635882139206	0.946000039577	0.512714266777	0	0	0
0.649940848351	0.963000059128	0.521927952766	0	0	0
0.63292068243	0.934000015259	0.506210505962	0	0	0
0.629349648952	0.925000071526	0.501332640648	0	0	0
0.627095580101	0.918000042439	0.497538775206	0	0	0
0.598055481911	0.872000038624	0.472607642412	0	0	0
0.623161375523	0.905000030994	0.490493029356	0	0	0
-7.46905851364	10.5520000458	5.69015026093	0	0	0
-7.29120540619	10.5450000763	5.68637609482	0	0	0
-6.93507385254	10.7070007324	5.77373361588	0	0	0
-2.03726267815	3.22700023651	1.74015510082	0	0	0
-2.00815820694	3.29500007629	1.7768239975	0	0	0
-1.99014985561	3.29500007629	1.7768239975	0	0	0
-1.94206368923	3.23000025749	1.74177289009	0	0	0
-1.93275165558	3.24400019646	1.74932229519	0	0	0
-1.94099617004	3.28800010681	1.77304911613	0	0	0
-1.90957427025	3.2650001049	1.76064646244	0	0	0
-1.87329185009	3.21800017357	1.73530185223	0	0	0
-1.85348951817	3.19900012016	1.72505605221	0	0	0
-1.84532427788	3.20000004768	1.72559523582	0	0	0
-1.83485782146	3.19700026512	1.72397756577	0	0	0
-1.79809057713	3.2570002079	1.75633251667	0	0	0
-1.79797959328	3.27300024033	1.76496052742	0	0	0
-1.79450130463	3.28300023079	1.77035295963	0	0	0
-1.78172290325	3.27600026131	1.76657831669	0	0	0
-1.75599515438	3.24500012398	1.74986147881	0	0	0
-1.49647343159	3.20200014114	1.72667384148	0	0	0
-1.47897326946	3.20200014114	1.72667384148	0	0	0
-1.46884572506	3.19900012016	1.72505605221	0	0	0
-1.45462656021	3.18700003624	1.71858501434	0	0	0
-1.40647280216	3.2570002079	1.75633251667	0	0	0
-1.37256979942	3.24000024796	1.7471653223	0	0	0
-1.33573555946	3.28000020981	1.76873517036	0	0	0
-1.30736303329	3.25400018692	1.7547147274	0	0	0
-1.29807174206	3.2530002594	1.75417554379	0	0	0
-1.29988253117	3.28000020981	1.76873517036	0	0	0
-1.28147351742	3.25600004196	1.75579333305	0	0	0
-1.28195595741	3.28000020981	1.76873517036	0	0	0
-1.26949989796	3.27100014687	1.76388192177	0	0	0
-1.2605612278	3.27100014687	1.76388192177	0	0	0
-1.24856138229	3.26300024986	1.759567976	0	0	0
-1.24192404747	3.26900005341	1.76280355453	0	0	0
-1.2537355423	3.32400012016	1.79246222973	0	0	0
-1.23529100418	3.29900026321	1.77898097038	0	0	0
-1.22924947739	3.30700016022	1.78329491615	0	0	0
-1.22316431999	3.31500005722	1.78760898113	0	0	0
-1.21520411968	3.3180000782	1.78922665119	0	0	0
-1.20104777813	3.30400013924	1.78167712688	0	0	0
-1.18227410316	3.30200004578	1.78059875965	0	0	0
-1.17467188835	3.3060002327	1.78275561333	0	0	0
-1.17621517181	3.33600020409	1.79893302917	0	0	0
-1.16674900055	3.33500027657	1.79839384556	0	0	0
-1.16041231155	3.34300017357	1.80270779133	0	0	0
-1.15231013298	3.34600019455	1.8043255806	0	0	0
-1.14145815372	3.34100008011	1.8016294241	0	0	0
-1.13131153584	3.33800005913	1.80001163483	0	0	0
-1.12151741982	3.33600020409	1.79893302917	0	0	0
-1.11340153217	3.33900022507	1.80055081844	0	0	0
-1.1069227457	3.34700012207	1.80486488342	0	0	0
-1.10269618034	3.36200022697	1.81295359135	0	0	0
-1.10033929348	3.38300013542	1.82427787781	0	0	0
-1.09173953533	3.38500022888	1.82535624504	0	0	0
-1.07865190506	3.37300014496	1.81888532639	0	0	0
-1.07323920727	3.38500022888	1.82535624504	0	0	0
-1.06430327892	3.3860001564	1.82589554787	0	0	0
-1.04539108276	3.35500025749	1.80917882919	0	0	0
-1.0402380228	3.36800026894	1.81618905067	0	0	0
-1.02705466747	3.35500025749	1.80917882919	0	0	0
-1.01849317551	3.35700011253	1.81025743484	0	0	0
-1.01803874969	3.3860001564	1.82589554787	0	0	0
-1.00342309475	3.36800026894	1.81618905067	0	0	0
-1.00159919262	3.39300012589	1.82967031002	0	0	0
-0.99115729332	3.38900017738	1.82751333714	0	0	0
-0.982475697994	3.39100027084	1.82859170437	0	0	0
-0.968043148518	3.37300014496	1.81888532639	0	0	0
-0.964795291424	3.39400005341	1.83020949364	0	0	0
-0.956928193569	3.39900016785	1.83290588856	0	0	0
-0.941227376461	3.37600016594	1.82050311565	0	0	0
-0.935590624809	3.38900017738	1.82751333714	0	0	0
-0.926876187325	3.39100027084	1.82859170437	0	0	0
-0.924104034901	3.41500020027	1.8415337801	0	0	0
-0.917986273766	3.42700004578	1.84800469875	0	0	0
-0.906500279903	3.41900014877	1.84369075298	0	0	0
-0.896632313728	3.41700005531	1.84261226654	0	0	0
-0.885736703873	3.41100025177	1.839376688	0	0	0
-0.878470957279	3.41900014877	1.84369075298	0	0	0
-0.871924102306	3.43000006676	1.84962248802	0	0	0
-0.862550914288	3.43000006676	1.84962248802	0	0	0
-0.853177785873	3.43000006676	1.84962248802	0	0	0
-0.844542622566	3.43300008774	1.85124015808	0	0	0
-0.838323831558	3.44600009918	1.85825037956	0	0	0
-0.827463746071	3.44000005722	1.85501492023	0	0	0
-0.819252252579	3.44500017166	1.85771119595	0	0	0
-0.811718702316	3.45300006866	1.86202514172	0	0	0
-0.803909182549	3.46000027657	1.86580002308	0	0	0
-0.795602083206	3.46500015259	1.86849617958	0	0	0
-0.786360085011	3.46600008011	1.8690353632	0	0	0
-0.774423003197	3.45500016212	1.86310374737	0	0	0
-0.762988746166	3.44600009918	1.85825037956	0	0	0
-0.754884004593	3.45200014114	1.8614859581	0	0	0
-0.747610151768	3.46200013161	1.86687839031	0	0	0
-0.738362789154	3.46300005913	1.86741781235	0	0	0
-0.732056677341	3.47800016403	1.87550640106	0	0	0
-0.724629878998	3.4880001545	1.88089883327	0	0	0
-0.713663101196	3.48100018501	1.87712419033	0	0	0
-0.700307190418	3.46200013161	1.86687839031	0	0	0
-0.694438517094	3.48000025749	1.87658500671	0	0	0
-0.685912787914	3.48500013351	1.87928116322	0	0	0
-0.671731233597	3.46100020409	1.8663392067	0	0	0
-0.66112524271	3.45500016212	1.86310374737	0	0	0
-0.653004169464	3.46200013161	1.86687839031	0	0	0
-0.643729388714	3.46300005913	1.86741781235	0	0	0
-0.636647105217	3.47600007057	1.87442803383	0	0	0
-0.625163555145	3.46500015259	1.86849617958	0	0	0
-0.61551707983	3.46400022507	1.86795699596	0	0	0
-0.609200239182	3.48200011253	1.87766337395	0	0	0
-0.599340558052	3.48000025749	1.87658500671	0	0	0
-0.576151967049	3.45500016212	1.86310374737	0	0	0
-0.564906179905	3.44400024414	1.85717201233	0	0	0
-0.55662381649	3.45100021362	1.86094677448	0	0	0
-0.548303246498	3.45800018311	1.86472141743	0	0	0
-0.53947687149	3.46200013161	1.86687839031	0	0	0
-0.528944611549	3.45500016212	1.86310374737	0	0	0
-0.51920235157	3.45300006866	1.86202514172	0	0	0
-0.510061621666	3.45500016212	1.86310374737	0	0	0
-0.501779317856	3.46300005913	1.86741781235	0	0	0
-0.492173850536	3.46200013161	1.86687839031	0	0	0
-0.481179475784	3.45100021362	1.86094677448	0	0	0
-0.244152903557	2.55100011826	1.37562310696	0	0	0
-0.238576412201	2.56600022316	1.38371181488	0	0	0
-0.231113091111	2.56100010872	1.38101553917	0	0	0
-0.222714483738	2.54500007629	1.37238752842	0	0	0
-0.214911982417	2.53500008583	1.36699509621	0	0	0
-0.186463683844	2.35100007057	1.26777327061	0	0	0
-0.180498585105	2.35700011253	1.27100884914	0	0	0
-0.173762232065	2.35300016403	1.26885175705	0	0	0
-0.166905507445	2.34700012207	1.26561629772	0	0	0
-0.160765394568	2.35100007057	1.26777327061	0	0	0
-0.154078215361	2.34700012207	1.26561629772	0	0	0
-0.145147919655	2.30700016022	1.24404633045	0	0	0
-0.136195495725	2.26300001144	1.22031950951	0	0	0
-0.129207089543	2.24900007248	1.2127699852	0	0	0
-0.123280115426	2.25300002098	1.21492695808	0	0	0
-0.117747172713	2.2650001049	1.22139799595	0	0	0
-0.108405426145	2.20100021362	1.18688607216	0	0	0
-0.102251194417	2.19800019264	1.18526828289	0	0	0
-0.0957630574703	2.18700003624	1.17933654785	0	0	0
-0.0893350467086	2.17600011826	1.17340481281	0	0	0
-0.0831587612629	2.17000007629	1.17016935349	0	0	0
-0.0776914581656	2.18300008774	1.17717957497	0	0	0
-0.0717259794474	2.18300008774	1.17717957497	0	0	0
-0.0657303705812	2.18200016022	1.17664039135	0	0	0
-0.059685446322	2.17900013924	1.17502260208	0	0	0
-0.0537308938801	2.17900013924	1.17502260208	0	0	0
-0.0476886406541	2.17500019073	1.17286550999	0	0	0
-0.0418409816921	2.18000006676	1.17556190491	0	0	0
-0.0359824635088	2.18600010872	1.17879724503	0	0	0
-0.0303107891232	2.20800018311	1.19066083431	0	0	0
-0.0246398244053	2.24100017548	1.20845592022	0	0	0
-0.0197717156261	2.39300012589	1.29042172432	0	0	0
-0.0131273027509	2.37400007248	1.28017604351	0	0	0
-0.00661749904975	2.36600017548	1.27586197853	0	0	0
-0.000151802931214	2.36400008202	1.27478349209	0	0	0
0.00632964679971	2.37200021744	1.27909755707	0	0	0
0.0128440177068	2.37800002098	1.2823330164	0	0	0
0.0193423777819	2.37800002098	1.2823330164	0	0	0
0.0258190054446	2.37600016594	1.28125452995	0	0	0
0.0322303026915	2.37000012398	1.27801907063	0	0	0
0.0388211235404	2.37700009346	1.28179371357	0	0	0
0.0452976860106	2.37600016594	1.28125452995	0	0	0
0.0518341772258	2.37800002098	1.2823330164	0	0	0
0.0583325363696	2.37800002098	1.2823330164	0	0	0
0.0645855292678	2.36900019646	1.2774797678	0	0	0
0.070939309895	2.36500000954	1.27532279491	0	0	0
0.0771730467677	2.35800004005	1.27154803276	0	0	0
0.0838295221329	2.36400008202	1.27478349209	0	0	0
0.0901750400662	2.36100006104	1.27316582203	0	0	0
0.0965041667223	2.35800004005	1.27154803276	0	0	0
0.102685913444	2.35199999809	1.26831257343	0	0	0
0.107953444123	2.32700014114	1.25483131409	0	0	0
0.112936943769	2.2990000248	1.23973238468	0	0	0
0.118856422603	2.29200005531	1.23595762253	0	0	0
0.125065177679	2.29100012779	1.23541843891	0	0	0
0.130867213011	2.28299999237	1.23110437393	0	0	0
0.114267885685	1.74400007725	0.940449416637	0	0	0
0.117668643594	1.72400009632	0.929664492607	0	0	0
0.122095875442	1.72000002861	0.927507460117	0	0	0
0.127017274499	1.72300004959	0.929125189781	0	0	0
0.132260873914	1.73000013828	0.932900011539	0	0	0
0.13453373313	1.69900012016	0.916183233261	0	0	0
0.134507343173	1.64200007915	0.885446071625	0	0	0
0.137047499418	1.61900007725	0.873043358326	0	0	0
0.141471743584	1.61900007725	0.873043358326	0	0	0
0.145805865526	1.61800003052	0.872504115105	0	0	0
0.148741811514	1.6020001173	0.863876223564	0	0	0
0.15034776926	1.57300007343	0.848237991333	0	0	0
0.154056429863	1.56700003147	0.845002472401	0	0	0
0.157328113914	1.55700004101	0.839609980583	0	0	0
0.161375373602	1.55500006676	0.838531434536	0	0	0
0.164879143238	1.54800009727	0.834756731987	0	0	0
0.169437095523	1.55100011826	0.836374461651	0	0	0
0.174347370863	1.55700004101	0.839609980583	0	0	0
0.180552244186	1.57400012016	0.84877717495	0	0	0
0.186732575297	1.59000003338	0.857405185699	0	0	0
0.192759990692	1.60400009155	0.864954650402	0	0	0
0.199109762907	1.62000012398	0.873582661152	0	0	0
0.203034177423	1.61600005627	0.871425628662	0	0	0
